0,0,0,0,0,0,0,0,0,1376,1388,1394,1412,1430,1450,1451,1464,1471,1477,1480,1495,1500,1509,1511,1530,1540,1543,1546,1547,1553,1557,1557,1556,1557,1565,1569,1572,1572,1572,1568,1566,1566,1569,1567,1571,1566,1571,1565,1567,1558,0,1417,1399,1391,1398,0,2484,2468,2463,2472,2486,0,0,0,0,1739,1737,1733,1733,1736,1741,1740,1747,1755,0,1878,1837,1842,1845,0,0,1573,1575,1577,1566,1565,1567,1578,0,0,0,0,0,2421,0,0,2431,0,2426,2425,2433,2434,2439,2425,0,2223,0,0,0,1539,1542,1545,1550,1553,1558,1562,1577,1569,0,2463,2467,2473,2473,2476,2478,2477,2473,2472,2471,2474,2476,2479,2484,2485,2481,2470,2464,2467,0,0,3536,3533,0,0,0,0,0,0,0,0,0,0,0,0,0,0,0,0,2465,2468,2473,2462,2464,2464,2462,2463,2462,2463,2463,2466,2462,2451,2447,2452,2451,2456,2456,2463,2457,2457,2458,2458,2460,2457,2461,2458,2457,2456,2454,2447,2442,2439,2442,2443,2444,2440,2437,2433,2430,2430,2432,2423,2405,2385,2369,2355,2346,2345,2339,2332,2319,2314,2310,2309,2305,2303,2301,2299,2299,2298,2297,2299,2301,2299,2293,2294,2298,2303,2302,2304,2302,2302,2300,2304,2308,2316,2318,2324,2323,2327,2335,2343,2347,2346,2350,2360,2366,2373,2378,2382,2395,2401,2399,2405,2405,2397,2388,2403,2411,2416,2423,2429,2429,2419,2410,2407,2405,2412,2412,2413,2410,2410,2416,2423,2419,2417,2409,2412,2416,2419,2421,2429,2423,2417,2415,2416,2412,2411,2412,2414,2416,2421,2422,2412,2408,2414,2419,2425,2428,2425,2420,2419,2413,2417,2411,2409,2408,2408,2408,0,0,0,0,0,0,0,0,0,0,0,0,0,0,0,0,0,0,0,0,0,0,0,0,0,0,0,1716,0,0,1698,1694,1689,1685,1676,1672,1676,0,0,2272,2277,2283,2282,2286,2280,2279,2276,2277,2276,2274,2273,2279,2278,2275,2276,2278,2280,2280,2279,2278,2278,2282,2275,2267,2264,2271,2271,2274,2274,2274,2266,2264,2272,2271,2272,2274,2277,2276,2271,2280,2284,2286,2274,2266,2265,2264,2262,2255,2249,2247,2249,0,2250,2248,2251,2251,2252,2256,2253,2251,2241,0,0,0,0,2235,2246,2251,0,0,0,0,0,0,0,0,0,0,0,0,0,0,1446,1370,1369,0,2281,2294,2306,2305,2295,2286,2277,0,0,0,0,0,0,0,1267,0,0,0,0,0,0,0,0,2131,0,0,0,0,0,0,0,0,0,0,0,0,0,0,0,2186,2192,2194,2192,2187,2184,2178,2162,0,0,0,0,0,0,0,0,0,0,0,0,0,0,0,0,0,0,0,0,0,0,0,0,0,0,0,0,0,0
0,1260,0,0,0,0,0,0,0,1376,1390,1402,1418,1433,1450,1460,1469,1476,1481,1480,1491,1494,1501,1507,1524,1539,1544,1545,1547,1550,1554,1560,1564,1567,1571,1573,1574,1573,1571,1567,1564,1565,1571,1570,1575,1572,1572,1565,1565,1560,1508,1416,1396,1393,1397,0,2458,2460,2450,2456,2460,0,0,0,0,1729,1729,1729,1735,1741,1744,1740,1751,1777,0,0,1841,1844,1847,0,1555,1570,1568,1565,1552,1556,1565,1578,0,0,0,0,0,0,0,0,0,0,0,0,0,0,2430,0,0,2207,0,0,0,1544,1539,1538,1538,1544,1551,1560,1567,0,0,2463,2466,2472,2471,2475,2478,2481,2476,2472,2464,0,2471,0,0,0,2474,2455,0,0,0,0,0,0,0,0,0,0,0,0,2434,2434,2446,2448,2440,2439,2438,2452,2457,2463,2464,2470,2461,2450,2437,2448,2448,2450,2446,2454,2452,2451,2446,2443,2437,2433,2428,2427,2437,2439,2441,2441,2441,2448,2448,2447,2444,2443,2441,2441,2439,2440,2433,2431,2430,2432,2437,2436,2432,2428,2423,2427,2425,2414,2385,2366,2354,2350,2345,2348,2341,2332,2319,2313,2308,2305,2305,2302,2300,2299,2301,2301,2300,2301,2301,2300,2296,2298,2300,2303,2302,2302,2305,2305,2308,2310,2313,2319,2322,2325,2322,2328,2334,2346,2346,2349,2353,2366,2374,2380,2382,2386,2394,2398,2404,2401,2401,2403,2407,2414,2418,2412,2421,2427,2432,2424,2418,2414,2413,2416,2420,2419,2414,2412,2418,2424,2425,2423,2419,2422,2423,2426,2429,2432,2428,2424,2422,2422,2421,2421,2422,2423,2424,2428,2428,2424,2421,2425,2431,2435,2436,2437,2432,2432,2427,2423,2420,2419,2424,2426,2430,2424,2423,2423,2425,2425,2420,2415,2411,2409,2411,2399,2393,2391,2390,2406,2420,2430,2421,2430,2423,2433,2446,2437,2443,2437,2435,0,0,0,0,0,1688,1686,1681,1671,1665,1663,1663,0,0,0,0,0,0,0,0,0,0,0,0,0,0,2316,2305,2300,2301,2299,2309,2319,2327,2326,2332,2337,0,2319,2325,2316,2308,2307,2312,2294,2283,2284,2293,2296,2299,2299,2290,2292,2297,2306,2296,2280,2266,2264,0,0,0,0,0,0,0,0,0,2246,0,0,0,2248,2245,2239,0,0,0,0,2241,0,0,1424,0,0,0,0,0,0,0,0,0,0,0,0,1439,1416,1422,1377,0,0,2290,2304,2299,2295,2288,2281,0,0,0,0,0,0,0,0,0,0,0,0,0,0,0,0,0,0,0,0,0,0,0,0,0,0,0,0,0,0,0,2171,2190,2192,2194,2192,2189,2189,2179,2164,0,0,0,0,0,0,0,0,0,0,0,0,0,0,0,0,0,0,0,0,0,0,0,0,0,0,0,0,0,0
0,0,0,0,0,0,0,0,0,1384,1387,1398,1414,1430,1454,1456,1469,1470,1484,1487,1486,1490,1493,1490,1522,1535,1541,1540,1545,1549,1559,1565,1574,1571,1575,1578,1580,1578,1576,1572,1569,1568,1574,1574,1578,1574,1573,1568,1572,1574,0,1411,1396,1393,1400,0,2451,2446,2439,2429,2415,0,0,0,0,1728,1729,1730,1738,1744,1747,1740,1754,0,0,0,1845,1843,1846,0,1564,1563,1561,1555,1538,1544,1555,1572,0,2134,2104,2114,2090,2088,2098,0,0,0,0,2350,2373,0,0,0,0,0,0,0,1526,1535,1536,1534,1537,1539,1552,1556,0,0,2445,2465,2465,2471,2469,2474,2474,2476,2468,0,0,0,0,0,0,0,0,0,0,0,0,0,0,0,0,0,0,0,2418,2423,2435,2441,2454,2460,2457,2454,2458,2460,2459,2457,2459,2460,2454,2439,2428,2433,2438,2443,2447,2448,2445,2438,2438,2433,2423,2410,2407,2410,2416,2421,2425,2425,2423,2423,2422,2424,2427,2432,2426,2422,2425,2424,2424,2420,2421,2422,2428,2430,2428,2423,2419,2420,2417,2402,2378,2362,2353,2348,2340,2338,2334,2327,2318,2311,2307,2305,2305,2299,2299,2298,2302,2301,2298,2296,2299,2300,2299,2297,2299,2301,2301,2302,2305,2306,2308,2307,2310,2314,2318,2321,2322,2329,2338,2344,2344,2347,2353,2366,2374,2381,2386,2385,2390,2390,2396,2393,2391,2397,2407,2414,2405,2401,2403,2414,2421,2421,2418,2414,2413,2417,2423,2423,2421,2418,2419,2420,2419,2422,2421,2426,2427,2431,2430,2430,2425,2425,2424,2424,2425,2424,2421,2421,2421,2424,2427,2426,2425,2427,2431,2435,2434,2436,2435,2435,2432,2429,2427,2431,2437,2438,2438,2432,2433,2435,2438,2437,2434,2435,2431,2431,2427,2429,2432,2434,2445,2448,2455,2456,2456,2456,2460,2461,2469,2466,2472,2467,2472,2458,2439,0,0,0,1658,1675,1669,1667,1661,1658,1655,1645,0,0,0,0,0,0,0,0,2592,2591,0,0,0,0,0,0,0,2355,2391,0,2425,2419,2417,2418,2418,2414,2407,2402,2395,2393,2385,2379,0,0,0,0,0,0,0,0,0,0,0,0,0,0,0,0,0,0,0,0,0,0,0,0,0,0,0,0,0,0,0,0,0,0,0,0,0,0,0,0,0,0,0,0,0,0,0,0,0,0,0,0,1430,1413,1404,0,0,2307,2305,2305,2298,2287,2276,0,0,0,0,0,0,0,0,0,0,0,0,0,0,0,0,0,0,0,0,0,0,0,0,0,0,0,0,0,0,0,2183,2188,2190,2191,2192,2191,2181,2165,0,0,0,0,0,0,0,0,0,0,0,0,0,0,0,0,0,0,0,0,0,0,0,0,0,0,0,0,0,0
0,0,0,0,0,0,0,0,0,1384,1386,1398,1416,1429,1447,1453,1462,1471,1484,1484,1489,1492,1497,1505,1521,1541,1545,1545,1552,1556,1560,1567,1575,1579,1582,1583,1581,1579,1578,1576,1575,1576,1580,1578,1581,1582,1581,1577,1578,1583,1560,1418,1398,1396,1403,0,2456,0,2433,2452,2451,0,0,0,0,1727,1731,1733,1737,1741,1745,1744,1756,1795,2061,0,1843,1839,0,0,1559,1557,1552,1544,1537,1533,1553,1570,0,0,2171,2169,2168,2168,2170,2177,2188,2192,2202,2207,2237,2266,2286,2227,2225,0,0,0,1524,1523,1530,1530,1535,1535,1546,1553,0,0,2432,2453,2457,2462,2464,2470,2471,2472,2463,2453,2432,0,2427,0,0,0,0,0,0,0,0,0,0,0,0,0,0,0,2417,2433,2446,2452,2463,2462,2459,2459,2462,2463,2452,2449,2447,2448,2440,2430,2423,2428,2431,2434,2431,2431,2429,2428,2428,2425,2413,2403,2402,2401,2404,2404,2413,2415,2414,2411,2406,2409,2411,2412,2412,2416,2414,2412,2412,2408,2409,2411,2418,2419,2421,2421,2417,2414,2403,2387,2367,2356,2344,2338,2333,2332,2326,2317,2311,2304,2304,2299,2301,2295,2296,2294,2299,2299,2299,2298,2299,2299,2299,2299,2300,2301,2300,2300,2303,2302,2307,2307,2312,2311,2317,2318,2322,2328,2336,2340,2339,2340,2349,2361,2373,2378,2380,2378,2384,2385,2394,2394,2392,2394,2403,2413,2405,2404,2406,2413,2414,2410,2406,2405,2410,2415,2417,2415,2414,2412,2416,2418,2420,2420,2421,2423,2426,2430,2430,2428,2423,2422,2420,2422,2422,2423,2419,2418,2418,2421,2423,2423,2425,2428,2430,2430,2430,2435,2437,2436,2434,2430,2430,2430,2437,2441,2441,2437,2437,2442,2444,2444,2442,2446,2445,2444,2438,2438,2444,2452,2458,2463,2463,2467,2466,2473,2472,2473,2475,2476,2484,2483,2485,2476,2474,2461,0,0,0,1658,1663,1663,1661,1658,1651,1641,0,2510,2518,2539,2569,2594,2602,2610,2615,2618,2616,2610,2595,2564,2509,0,2429,2400,2451,2460,2456,2449,2442,2439,2434,2432,2428,2425,2419,2419,2418,2423,0,0,0,2616,2618,2626,2631,2630,2626,2622,2616,2616,2615,0,0,0,0,0,0,0,0,0,0,0,0,0,0,0,0,0,0,0,0,0,0,0,0,0,0,0,0,0,0,0,0,0,0,0,0,0,0,1459,1464,0,1356,0,0,2298,2297,2304,2296,2286,2286,0,0,0,0,0,0,0,0,0,0,0,0,0,0,0,0,2158,0,0,0,0,0,0,0,0,0,0,0,0,0,0,2187,2189,2193,2195,2192,2189,2180,2170,0,0,0,0,0,0,0,0,0,0,0,0,0,0,0,0,0,0,0,0,0,0,0,0,0,0,0,0,0,0
0,0,0,0,0,0,0,0,0,1384,1394,1407,1418,1429,1438,1440,1452,1460,1473,1480,1488,1491,1494,1504,1527,1542,1547,1552,1556,1559,1562,1566,1577,1582,1587,1587,1583,1583,1586,1586,1583,1582,1587,1584,1586,1582,1587,1585,1589,1588,0,1416,1399,1396,1405,0,2471,2450,2442,2447,2446,0,0,0,0,1727,1735,1735,1739,1741,1748,1748,1762,1787,2089,0,0,1835,1848,0,1557,1550,1551,1545,1538,1538,1550,1578,0,2211,2219,2222,2224,2223,2225,2231,2237,2232,2224,2226,2240,2256,2258,2250,2242,2258,0,0,1520,1519,1522,1521,1532,1534,1545,0,0,2347,2373,2399,2417,2429,2439,2443,2445,2443,2442,2426,2371,2411,2437,2429,2403,2412,0,0,0,0,0,0,0,0,0,0,2452,2456,2470,2473,2470,2461,2462,2459,2459,2456,2458,2450,2442,2436,2440,2437,2432,2423,2419,2417,2417,2418,2414,2417,2416,2420,2419,2410,2399,2393,2393,2393,2391,2395,2399,2403,2403,2399,2395,2397,2399,2402,2406,2407,2404,2397,2399,2399,2398,2400,2401,2405,2408,2411,2407,2404,2391,2374,2360,2353,2347,2332,2326,2319,2316,2307,2304,2299,2301,2297,2298,2292,2294,2292,2295,2296,2298,2295,2299,2299,2302,2300,2301,2303,2301,2299,2298,2298,2305,2308,2312,2309,2312,2315,2321,2325,2334,2337,2342,2336,2344,2351,2365,2369,2373,2374,2380,2384,2392,2392,2388,2386,2390,2397,2394,2395,2400,2406,2407,2402,2399,2398,2405,2409,2411,2409,2411,2414,2415,2416,2418,2420,2420,2421,2420,2423,2422,2424,2422,2424,2421,2420,2421,2421,2416,2416,2418,2420,2420,2421,2424,2424,2427,2427,2430,2432,2435,2433,2433,2430,2431,2430,2437,2440,2439,2437,2440,2444,2445,2445,2444,2449,2450,2447,2439,2436,2444,2453,2462,2462,2465,2469,2472,2472,2471,2470,2475,2479,2487,2488,2486,2483,2481,2479,0,0,0,1666,1657,1657,1655,1653,1645,1636,0,2517,2526,2537,2565,2595,2615,2620,2622,2623,2629,2626,2617,2559,0,0,0,2451,2460,2462,2457,2453,2446,2439,2435,2434,2436,2431,2428,2428,2432,2443,0,0,2627,2635,2636,2640,2642,2641,2640,2637,2636,2635,2636,2634,0,0,0,0,0,0,0,0,0,0,1431,0,0,0,0,0,0,0,0,0,0,0,0,0,0,0,0,0,0,0,0,0,0,0,0,0,0,1488,1404,0,0,0,0,2293,2305,2310,2306,2294,2294,0,0,0,0,0,1337,1358,0,0,0,0,0,0,0,0,0,2155,2157,2176,0,0,0,0,0,0,0,0,0,0,0,2169,2182,2194,2197,2196,2191,2185,2183,2179,0,0,0,0,0,0,0,0,0,0,0,0,0,0,0,0,0,0,0,0,0,0,0,0,0,0,0,0,0,0
0,0,0,0,0,0,0,0,0,1390,1399,1414,1424,1427,1432,1431,1447,1456,1468,1473,1484,1492,1499,1509,1526,1545,1549,1553,1555,1560,1563,1574,1583,1589,1589,1589,1586,1588,1592,1594,1587,1587,1589,1589,1590,1588,1590,1589,1590,1587,0,1403,1395,1395,1404,1366,2487,2486,2466,2462,2458,0,0,0,0,1727,1737,1739,1739,1739,1746,1749,1763,1804,0,0,0,1838,1849,0,1551,1548,1542,1534,1530,1526,1538,1567,0,2229,2239,2249,2251,2254,2257,2261,2266,2267,2266,2265,2274,2283,2282,2277,2272,2265,0,0,1519,1515,1516,1515,1527,1532,1538,0,2328,2335,2340,2346,2351,2354,2360,2369,2357,2358,2365,2347,0,0,0,0,0,0,0,0,0,0,0,0,0,0,2396,2445,2443,2463,2473,2473,2469,2463,2463,2461,2456,2450,2446,2443,2436,2433,2432,2428,2425,2415,2411,2408,2405,2402,2395,2397,2398,2405,2404,2398,2390,2388,2386,2383,2382,2386,2392,2395,2399,2395,2391,2387,2389,2393,2397,2400,2396,2392,2390,2390,2388,2386,2383,2384,2388,2395,2396,2394,2380,2364,2350,2341,2334,2323,2320,2312,2306,2300,2298,2298,2299,2296,2295,2290,2291,2289,2292,2291,2295,2294,2296,2295,2298,2298,2300,2299,2299,2298,2297,2298,2302,2307,2311,2308,2309,2312,2318,2322,2328,2333,2339,2335,2339,2344,2358,2364,2367,2371,2376,2382,2385,2386,2382,2381,2384,2388,2390,2392,2397,2399,2396,2389,2390,2396,2404,2406,2405,2404,2401,2406,2408,2413,2415,2415,2416,2415,2417,2419,2422,2426,2427,2425,2422,2418,2419,2417,2414,2415,2420,2423,2423,2424,2426,2425,2424,2422,2425,2429,2434,2431,2430,2428,2428,2427,2432,2435,2440,2441,2442,2444,2445,2444,2442,2443,2446,2448,2444,2440,2445,2454,2463,2467,2468,2473,2476,2477,2475,2474,2476,2479,2485,2487,2484,2480,2481,2481,2465,0,0,0,1657,1651,1646,1645,1635,1626,1616,0,2519,2532,2554,2586,2609,2612,2608,2611,2618,2623,2611,2589,0,2436,2446,2454,2450,2454,2449,2447,2439,2433,2431,2431,2435,2433,2432,2432,2440,2452,2489,0,2626,2635,2636,2635,2635,2638,2640,2643,2643,2640,2634,2633,0,0,0,0,0,0,0,0,0,0,0,0,0,0,0,0,0,0,0,0,0,0,0,0,0,0,0,0,0,0,0,0,0,0,0,0,0,1404,1363,1353,1329,1363,0,0,2307,2309,2297,2291,2296,2288,0,0,0,0,0,1377,0,0,0,0,0,0,0,0,0,0,0,0,0,0,0,0,0,0,0,0,0,0,0,2174,2185,2198,2197,2197,2190,2183,2178,0,0,0,0,0,0,0,0,0,0,0,0,0,0,0,0,0,0,0,0,0,0,0,0,0,0,0,0,0,0,0
0,0,0,0,0,0,0,0,0,1363,1398,1408,1417,1419,1426,1437,1440,1459,1469,1474,1484,1497,1503,1510,1525,1537,1538,1540,1544,1554,1565,1581,1587,1590,1590,1594,1591,1592,1595,1597,1590,1587,1592,1595,1598,1590,1593,1590,1592,1585,1559,1399,1391,1393,1403,0,2491,2488,2489,2490,2463,0,0,0,0,1727,1740,1743,1744,1738,1743,1746,1766,1807,2126,0,0,1842,1852,0,1553,1537,1534,1525,1525,1520,1534,0,0,2239,2250,2261,2263,2267,2270,2274,2280,2283,2285,2285,2293,2301,2299,2295,2260,0,0,1515,1509,1504,1502,1505,1518,1525,1525,0,2337,2340,2342,2342,2342,2341,2339,2338,2338,2335,2335,2333,2332,2327,2326,2319,2316,2318,2322,2322,2310,2309,2304,0,0,2291,2295,2344,2428,2457,2462,2462,2461,2459,2459,2458,2453,2446,2439,2436,2435,2429,2429,2424,2418,2410,2403,2400,2395,2395,2390,2388,2383,2385,2385,2382,2377,2376,2375,2375,2375,2377,2379,2383,2386,2383,2380,2376,2382,2385,2388,2389,2388,2388,2384,2382,2377,2375,2371,2373,2372,2374,2376,2379,2371,2360,2348,2339,2331,2320,2315,2304,2297,2293,2292,2293,2292,2293,2294,2292,2290,2287,2290,2290,2293,2292,2295,2292,2293,2293,2296,2296,2297,2297,2296,2297,2301,2305,2307,2306,2305,2309,2311,2316,2319,2327,2333,2333,2336,2338,2348,2358,2365,2370,2370,2375,2375,2379,2376,2377,2380,2383,2389,2389,2394,2391,2390,2381,2382,2388,2400,2405,2409,2407,2405,2404,2404,2406,2410,2413,2410,2407,2409,2414,2417,2422,2425,2423,2424,2425,2425,2419,2415,2417,2420,2421,2419,2421,2427,2428,2426,2424,2424,2425,2428,2427,2428,2427,2429,2426,2431,2431,2437,2437,2438,2437,2439,2440,2438,2437,2440,2444,2446,2446,2448,2453,2462,2466,2473,2477,2481,2475,2475,2472,2479,2480,2484,2484,2485,2483,2485,2482,2472,0,0,0,0,1647,1639,1639,1630,1624,1613,0,2526,2529,2547,2563,2580,2581,2583,2588,2600,2605,2603,2577,2522,2473,2453,2450,2445,2446,2440,2438,2432,2430,2431,2433,2436,2435,2437,2439,2448,2456,2492,2579,2620,2634,2637,2635,2634,2637,2641,2642,2641,2636,2630,2625,0,0,0,0,0,0,0,0,0,0,0,0,0,0,1383,0,0,0,0,0,0,0,0,0,0,0,0,0,0,0,0,0,0,0,0,0,0,1413,1315,1342,1349,0,0,0,2311,2309,2299,2298,2290,2283,0,0,0,0,0,0,0,0,0,0,0,0,0,0,0,0,0,0,0,0,0,0,0,0,0,0,0,0,0,2188,2187,2196,2199,2198,2195,2187,2181,0,2083,0,0,0,0,0,0,0,0,0,0,0,0,0,0,0,0,0,0,0,0,0,0,0,0,0,0,0,0,0
0,1370,0,0,0,0,0,0,0,1376,1393,1396,1407,1411,1428,1434,1435,1446,1479,1472,1478,1492,1504,1516,1533,1537,1530,1534,1541,1559,1571,1589,1591,1595,1594,1600,1598,1597,1598,1599,1596,1595,1597,1601,1602,1599,1598,1594,1590,1583,0,1401,1394,1398,1407,0,2476,2484,2486,2484,2456,0,0,0,0,1736,1744,1745,1744,1739,1743,1748,1769,1815,2120,0,0,1846,0,0,1509,1528,1523,1516,1517,1518,1531,0,0,2247,2255,2262,2266,2271,2276,2281,2285,2289,2292,2295,2301,2306,2305,2294,2271,0,0,1513,1506,1501,1500,1507,1510,1515,0,2333,2345,2349,2350,2349,2349,2351,2351,2349,2348,2345,2344,2341,2340,2335,2336,2333,2327,2318,2315,2312,2310,2312,2314,2315,2305,2287,2276,2305,0,2458,2454,2451,2455,2457,2456,2454,2447,2440,2434,2435,2431,2423,2419,2417,2413,2406,2397,2392,2388,2384,2380,2377,2375,2372,2370,2372,2370,2369,2367,2366,2369,2370,2374,2378,2381,2379,2376,2374,2378,2378,2380,2380,2381,2383,2381,2371,2366,2362,2363,2362,2362,2360,2358,2356,2352,2349,2343,2333,2322,2312,2304,2296,2288,2288,2286,2287,2286,2288,2290,2287,2285,2283,2286,2286,2288,2290,2291,2288,2288,2291,2292,2292,2293,2294,2295,2297,2299,2302,2303,2304,2304,2308,2308,2313,2315,2323,2327,2331,2335,2340,2349,2359,2364,2369,2366,2369,2366,2371,2370,2373,2375,2376,2383,2382,2384,2382,2383,2379,2377,2383,2394,2404,2408,2406,2402,2398,2393,2395,2399,2406,2403,2403,2411,2417,2417,2416,2416,2423,2428,2432,2428,2422,2418,2414,2414,2414,2415,2418,2425,2428,2426,2424,2423,2422,2423,2421,2424,2426,2430,2427,2429,2426,2430,2431,2433,2432,2432,2433,2434,2434,2438,2443,2444,2447,2448,2453,2456,2462,2470,2476,2477,2474,2474,2475,2480,2479,2484,2481,2484,2480,2485,2483,2478,2446,0,0,0,1646,1636,1633,1624,1623,1616,1605,0,2529,2538,2547,2553,2559,2564,2570,2574,2582,2575,2552,2504,2470,2453,2444,2443,2445,2439,2438,2433,2435,2432,2435,2434,2437,2437,2442,2448,2454,2480,2564,2614,2629,2634,2635,2637,2638,2643,2645,2640,2630,2623,0,0,0,0,0,0,0,0,1457,0,0,0,1452,0,1434,0,0,0,0,0,0,0,0,0,0,0,0,0,0,0,0,0,0,0,0,0,0,0,1457,1381,1309,1323,1353,1365,0,0,2302,2303,2290,2281,2261,2274,0,0,0,0,0,0,0,0,0,0,0,0,0,0,0,0,0,0,0,0,0,0,0,0,0,0,0,0,2201,2190,2193,2198,2198,2199,2193,2184,2161,2065,0,0,0,0,0,0,0,0,0,0,0,0,0,0,0,0,0,0,0,0,0,0,0,0,0,0,0,0,0
0,1369,0,0,0,0,0,0,0,1389,1397,1398,1409,1415,1423,1426,1432,1435,1460,1478,1484,1495,1501,1519,1535,1540,1532,1538,1544,1562,1569,1585,1587,1593,1596,1602,1605,1606,1603,1602,1601,1602,1603,1604,1604,1601,1604,1599,1595,1578,0,1410,1398,1396,1402,0,2483,2482,2491,2490,2475,0,0,0,0,1742,1747,1745,1746,1743,1747,1749,1771,0,2096,0,1851,1849,0,0,1514,1513,1516,1512,1516,1527,1535,1542,2251,2255,2259,2264,2268,2272,2277,2282,2286,2288,2293,2298,2303,2305,2305,2299,2270,0,0,1504,1503,1496,1497,1499,1498,1494,0,2337,2346,2350,2351,2351,2352,2355,2358,2355,2354,2352,2354,2348,2347,2343,2348,2346,2344,2330,2323,2316,2316,2318,2319,2318,2305,2285,2272,2286,0,2456,2451,2446,2453,2455,2453,2449,2443,2438,2432,2428,2424,2417,2415,2411,2407,2399,2390,2386,2380,2377,2373,2371,2370,2364,2361,2361,2360,2360,2360,2358,2361,2361,2368,2371,2373,2373,2373,2373,2374,2373,2375,2374,2376,2374,2375,2365,2360,2354,2356,2356,2355,2349,2345,2340,2340,2338,2333,2324,2316,2308,2297,2290,2285,2285,2283,2278,2278,2281,2287,2285,2282,2282,2285,2286,2287,2288,2288,2287,2288,2291,2291,2291,2290,2291,2292,2296,2299,2301,2302,2304,2306,2308,2306,2309,2312,2321,2327,2332,2338,2342,2351,2359,2366,2367,2364,2365,2363,2367,2365,2368,2371,2375,2382,2377,2380,2378,2382,2379,2379,2381,2388,2393,2395,2397,2400,2398,2390,2391,2395,2403,2402,2401,2409,2414,2411,2404,2403,2413,2419,2424,2421,2420,2415,2413,2409,2409,2405,2408,2414,2422,2424,2426,2428,2426,2421,2418,2422,2423,2424,2423,2427,2425,2422,2420,2424,2425,2427,2427,2429,2432,2436,2442,2444,2446,0,0,0,0,2469,2473,2472,2469,2470,2473,2481,2478,2484,2483,2486,2482,2487,2488,2485,2460,0,0,0,0,1632,1629,1622,1621,1615,1613,0,2534,2538,2537,2543,2548,2558,2563,2565,2561,2547,2507,2476,2458,2446,2440,2438,2436,2431,2431,2431,2435,2434,2437,2438,2441,2442,2445,2447,2451,2470,2544,2604,2623,2632,2640,2643,2640,2641,2640,2636,2624,0,0,0,0,0,0,0,0,0,0,0,0,0,1438,0,0,0,0,0,0,0,0,0,0,0,0,0,0,0,0,0,0,0,0,0,0,0,0,0,1409,1382,0,1324,1348,1383,1355,0,2321,2314,2300,2279,2267,2269,0,0,0,0,0,0,0,0,0,0,0,0,0,0,0,0,0,0,0,0,0,0,0,0,0,0,0,0,2196,2198,2198,2197,2198,2201,2199,2191,2172,0,0,0,0,0,0,0,0,0,0,0,0,0,0,0,0,0,0,0,0,0,0,0,0,0,0,0,0,0,0
0,0,0,0,0,0,0,0,0,1399,1398,1400,1413,1419,1422,1422,1446,1457,1466,1477,1487,1496,1500,1508,1526,1540,1540,1546,1553,1568,1573,1582,1584,1594,1599,1604,1608,1611,1610,1608,1608,1608,1603,1602,1604,1608,1609,1605,1600,1583,0,1410,1392,1391,1398,1425,2480,2488,2488,2489,2477,0,0,0,0,1744,1745,1741,1745,1747,1753,1753,1772,0,2086,2086,0,1847,0,0,1505,1509,1511,1511,1516,1528,1530,1537,2268,2263,2267,2269,2274,2276,2280,2284,2288,2291,2297,2302,2305,2305,2305,2300,2286,0,0,1502,1508,1500,1498,1496,1496,1490,1479,0,2346,2350,2350,2351,2352,2356,2359,2358,2356,2356,2359,2359,2356,2353,2356,2352,2350,2342,2334,2326,2323,2322,2322,2322,2311,2288,2274,2287,2385,2450,2448,2445,2450,2452,2450,2446,2439,2432,2425,2422,2417,2411,2405,2403,2400,2392,2384,2380,2376,2371,2367,2367,2367,2362,2357,2354,2354,2354,2355,2353,2353,2353,2360,2364,2366,2368,2370,2374,2372,2370,2368,2367,2367,2365,2368,2362,2357,2348,2348,2348,2348,2343,2338,2333,2330,2325,2317,2310,2305,2300,2289,2285,2283,2284,2283,2278,2277,2278,2280,2280,2279,2280,2282,2283,2285,2284,2283,2284,2287,2291,2291,2291,2290,2289,2290,2295,2300,2301,2303,2304,2306,2306,2309,2311,2315,2321,2328,2331,2336,2343,2351,2356,2362,2367,2368,2367,2363,2361,2362,2365,2370,2371,2374,2368,2372,2372,2379,2380,2377,2379,2377,2382,2380,2385,2391,2395,2390,2393,2396,2403,2405,2402,2408,2407,2405,2395,2395,2405,2406,2410,2409,2412,2413,2411,2408,2403,2402,2404,2410,2413,2416,2416,2423,2421,2415,2413,2421,2423,2422,2424,2425,2424,2419,2418,2421,2420,2420,2416,2419,0,0,0,0,0,0,0,0,0,0,0,2467,2463,2466,2473,2478,2476,2481,2484,2484,2481,2484,2490,2486,2472,0,0,0,0,1620,1621,1617,1617,1615,1608,0,0,2533,2538,2546,2550,2555,2554,2553,2548,2526,2487,2458,2444,2441,2437,2436,2433,2430,2429,2432,2435,2436,2436,2439,2445,2449,2451,2451,2452,2463,2518,2593,2618,2628,2636,2640,2640,2638,2638,2633,0,0,0,0,0,0,0,0,0,0,0,0,0,0,0,0,0,0,0,0,0,0,0,0,1495,0,0,0,0,0,0,0,0,0,0,0,0,0,0,0,0,1422,0,0,0,1374,0,0,0,2298,2304,2284,2275,2275,2291,0,0,0,0,0,0,0,0,0,0,0,0,0,0,0,0,0,0,0,0,0,0,0,0,0,0,0,0,2197,2197,2193,2196,2198,2198,2188,2166,0,0,0,0,0,0,0,0,0,0,0,0,0,0,0,0,0,0,0,0,0,0,0,0,0,0,0,0,0,0
0,0,0,0,0,0,0,0,0,1410,1405,1409,1415,1424,1424,1430,1457,1474,1478,1488,1492,1503,1503,1509,1516,1533,1543,1550,1558,1569,1575,1577,1584,1591,1600,1607,1611,1613,1611,1613,1614,1612,1607,1605,1608,1611,1614,1611,1608,1594,0,1407,1390,1384,1392,0,2473,2477,2476,2470,2456,0,0,0,0,1744,1746,1743,1745,1748,1753,1754,1773,0,2079,0,0,1848,0,0,1499,1502,1503,1505,1513,1521,1521,1517,2239,2264,2271,2274,2282,2283,2288,2288,2293,2293,2300,2305,2308,2308,2308,2306,2290,2274,0,0,1505,1496,1491,1488,1491,1487,1484,0,2346,2349,2350,2351,2354,2357,2359,2358,2356,2358,2362,2363,2360,2360,2359,2353,2348,2344,2343,2333,2328,2325,2326,2327,2314,2287,2272,2285,2370,2445,2447,2448,2447,2445,2442,2440,2434,2429,2422,2421,2417,2411,2406,2400,2395,2385,2379,2376,2371,2368,2364,2362,2361,2357,2353,2349,2347,2349,2352,2354,2352,2348,2351,2355,2358,2362,2365,2368,2365,2365,2363,2366,2361,2358,2355,2356,2353,2346,2343,2342,2342,2341,2337,2328,2323,2316,2309,2302,2298,2294,2286,2282,2283,2283,2284,2282,2280,2280,2280,2281,2278,2278,2280,2282,2286,2283,2281,2280,2284,2287,2288,2291,2291,2291,2290,2294,2299,2302,2304,2303,2306,2306,2310,2310,2312,2319,2325,2330,2333,2339,2343,2345,2354,2363,2371,2366,2361,2357,2363,2365,2369,2370,2373,2370,2372,2372,2376,2372,2374,2377,2382,2379,2379,2382,2387,2388,2388,2394,2398,2404,2404,2400,2404,2401,2400,2392,2393,2397,2398,2400,2400,2401,2406,2409,2410,2403,2399,2401,2403,2405,2406,2411,2417,2416,2413,2413,2417,2417,2416,2419,2420,2421,2416,2418,2421,2418,2415,0,0,0,1554,1555,1558,1561,1563,1563,1563,1562,1558,0,0,2460,2464,2470,2476,2477,2483,2487,2487,2483,2483,2488,2487,2478,2451,0,0,0,0,1611,1610,1609,1610,1606,0,0,2538,2537,2546,2546,2551,2547,2541,2524,2497,2467,2447,2439,2435,2435,2431,2428,2424,2421,2424,2428,2434,2437,2444,2450,2455,2458,2457,2458,2463,2505,2581,2616,2627,2635,2637,2640,2637,2635,2639,0,0,0,0,0,0,0,0,0,0,0,0,0,0,0,0,0,0,0,0,0,0,0,0,0,0,0,0,0,0,0,0,0,0,0,0,0,0,0,0,0,0,0,1373,1354,1437,0,0,0,2320,2297,2294,2275,2286,2293,0,0,0,0,0,0,0,0,0,0,0,0,0,0,0,0,0,0,0,0,0,0,0,0,0,0,0,0,2197,2193,2191,2195,2197,2196,2186,2167,0,0,0,0,0,0,0,0,0,0,0,0,0,0,0,0,0,0,0,0,0,0,0,0,0,0,0,0,0,0
0,0,0,0,0,0,0,0,0,1398,1397,1403,1410,1427,1441,1449,1461,1484,1487,1490,1491,1508,1507,1511,1512,1526,1542,1552,1565,1570,1573,1575,1583,1593,1608,1615,1613,1608,1610,1616,1620,1618,1614,1613,1615,1619,1620,1616,1615,1605,0,1406,1388,1388,1397,0,0,2487,2475,2472,2466,0,0,0,0,1744,1743,1739,1742,1745,1753,1755,1773,0,2081,0,0,1843,0,0,1495,1497,1500,1502,1505,1512,1514,1517,0,2263,2270,2276,2283,2284,2287,2287,2292,2295,2300,2305,2306,2307,2308,2309,2307,2289,0,0,1503,1495,1485,1484,1484,1486,1483,1484,0,0,2349,2352,2356,2358,2356,2355,2353,2357,2361,2364,2361,2361,2363,2359,2350,2345,2343,2337,2333,2328,2326,2324,2313,2287,2274,2286,2370,2440,2448,2450,2447,2442,2438,2434,2430,2425,2420,2419,2414,2408,2399,2399,2393,2383,2376,2370,2368,2365,2362,2356,2352,2351,2351,2349,2345,2345,2348,2351,2348,2345,2347,2352,2353,2356,2359,2362,2358,2360,2359,2359,2351,2347,2344,2346,2345,2341,2336,2335,2334,2333,2329,2323,2318,2311,2301,2296,2291,2286,2280,2277,2279,2280,2280,2279,2276,2275,2275,2276,2273,2272,2273,2277,2281,2280,2280,2280,2284,2286,2286,2289,2290,2290,2287,2289,2293,2298,2303,2302,2303,2304,2310,2311,2315,2320,2323,2326,2327,2338,2340,2342,2345,2355,2365,2361,2360,2356,2365,2365,2367,2365,2367,2365,2366,2370,2374,2372,2369,2374,2376,2380,2379,2383,2383,2386,2386,2395,2398,2399,2397,2396,2398,2396,2394,2393,2394,2399,2398,2403,2402,2398,2405,2408,2412,2402,2401,2401,2401,2398,2398,2401,2405,2403,2403,2406,2408,2409,2411,2412,2413,2414,2417,2420,2448,0,0,1559,1555,1554,1554,1557,1559,1560,1560,1562,1563,1565,1562,0,0,2454,2462,2467,2474,2473,2480,2484,2484,2482,2479,2482,2482,2476,2453,0,0,0,0,1601,1603,1603,1607,1603,0,0,2535,2535,2543,2546,2549,2541,2525,2497,2473,2457,2442,2436,2431,2432,2428,2428,2428,2427,2425,2426,2430,2436,2442,2447,2452,2456,2459,2459,2464,2501,2580,2617,2627,2632,2637,2643,2644,2632,0,0,0,0,0,0,0,0,0,0,0,0,0,0,0,0,0,0,0,0,0,0,0,0,0,0,0,0,0,0,0,0,0,0,0,0,0,0,0,0,0,0,0,1369,1344,1373,1380,0,0,0,2302,2318,2290,2290,2287,2299,2316,0,0,0,0,0,0,0,0,0,0,0,0,0,0,0,0,0,0,0,0,0,0,0,0,0,0,2210,2197,2192,2192,2196,2194,2188,2179,2167,0,0,0,0,0,0,0,0,0,0,0,0,0,0,0,0,0,0,0,0,0,0,0,0,0,0,0,0,0,0
0,0,0,0,0,0,0,0,0,1394,1399,1405,1413,1426,1443,1446,1461,1479,1488,1490,1495,1497,1506,1510,1517,1526,1542,1556,1566,1569,1577,1582,1592,1594,1606,1615,1617,1612,1613,1618,1621,1621,1622,1619,1621,1621,1626,1623,1620,1612,0,1407,1391,1389,1400,0,0,2501,0,0,0,0,0,0,0,1746,1744,1741,1745,1749,1752,1752,1766,0,2070,0,1846,1842,0,0,1498,1500,1500,1501,1502,1504,1512,0,0,2258,2265,2268,2274,2277,2283,2286,2291,2292,2296,2302,2306,2308,2312,2314,2315,2310,0,0,1495,1495,1484,1483,1482,1483,1477,1474,1473,1467,0,0,0,0,0,0,0,0,0,0,0,0,0,0,0,0,0,0,2334,2331,2326,2319,2308,2279,2268,2281,0,0,0,0,0,0,0,0,0,0,2424,2421,0,0,0,0,0,2382,2375,2369,2364,2362,2360,2348,2344,2346,2348,2350,2344,2344,2347,2350,2347,2343,2344,2349,2349,2351,2353,2353,2352,2353,2356,2356,2348,2344,2339,2339,2338,2335,2332,2328,2325,2322,2321,2319,2314,2305,2296,2291,2289,2282,2278,2272,2274,2274,2274,2272,2270,2271,2272,2271,2269,2267,2270,2272,2274,2274,2276,2278,2282,2281,2281,2282,2285,2286,2286,2286,2289,2294,2299,2301,2304,2303,2305,2306,2311,2318,2319,2325,2326,2337,2340,2340,2342,2347,2353,2352,2355,2357,2364,2362,2363,2364,2364,2365,2362,2368,2367,2369,2367,2369,2369,2372,2377,2381,2382,2383,2386,2392,2394,2396,2396,2396,2393,2393,2392,2394,2395,2398,2399,2404,2403,2397,2396,2399,2401,2397,2396,2399,2396,2396,2394,2397,2398,2397,2401,2403,2405,2404,2407,2406,2407,2406,2410,2419,0,0,1562,1560,1557,1555,1557,1560,1561,1562,1560,1562,1563,1566,1565,0,0,2455,2463,2468,2473,2469,2474,2478,2481,2478,2474,2478,2475,2470,0,0,0,0,1591,1592,1591,1591,1595,1596,0,0,2536,2533,2537,2540,2542,2529,2500,2472,2456,2448,2437,2430,2426,2425,2424,2426,2428,2429,2424,2423,2425,2436,2444,2449,2453,2456,2460,2459,2467,2511,2587,2620,2627,2631,2637,2641,2643,0,0,0,0,0,0,0,0,0,0,0,0,0,0,0,0,1462,0,0,0,0,0,0,0,0,0,0,0,0,0,0,0,0,0,0,0,0,0,0,0,0,0,0,0,0,1335,1350,1345,1347,0,0,0,2299,2314,2314,2310,2308,2314,0,0,0,0,0,0,0,0,0,0,0,0,0,0,0,0,0,0,0,0,0,0,0,0,0,0,2217,2203,2195,2196,2197,2196,2187,2179,2167,0,0,0,0,0,0,0,0,0,0,0,0,0,0,0,0,0,0,0,0,0,0,0,0,0,0,0,0,0,0
0,0,0,0,0,0,0,0,1407,1407,1404,1401,1406,1413,1429,1441,1457,1468,1473,1484,1488,1498,1503,1522,1526,1527,1538,1552,1567,1576,1580,1585,1592,1595,1606,1613,1618,1614,1617,1623,1625,1623,1626,1627,1624,1623,1625,1624,1622,1614,0,1408,1390,1389,1401,0,0,0,0,0,1775,0,1800,1813,1805,1746,1742,1739,1746,1751,1754,1751,1763,0,2062,0,1841,0,0,0,1496,1500,1497,1495,1494,1498,1506,1516,0,2253,2261,2268,2271,2274,2277,2283,2286,2290,2295,2303,2306,2308,2312,2314,2314,2309,2304,0,0,1496,1487,1486,1480,1478,1470,1469,1469,1472,1472,1471,1470,0,0,0,0,0,0,0,0,0,0,0,0,0,0,0,0,0,0,0,0,0,0,0,0,0,0,0,0,0,0,0,0,0,0,0,0,0,0,0,0,0,0,0,0,0,0,0,0,0,0,0,0,0,0,0,0,0,0,0,0,0,0,0,0,0,0,0,0,0,0,0,0,0,0,0,2312,2305,2309,2311,2310,2293,2279,2278,2280,2276,2270,2263,2265,2264,2261,2254,2254,2257,2260,2260,2259,2258,2260,2261,2261,2263,2268,2273,2277,2274,2272,2273,2275,2279,2279,2280,2282,2285,2291,2295,2298,2296,2298,2301,2311,2312,2314,2319,2322,2332,2335,2338,2338,2339,2342,2341,2351,2356,2357,2357,2358,2358,2358,2356,2355,2360,2361,2366,2363,2363,2358,2364,2369,2377,2380,2385,2387,2388,2391,2394,2396,2394,2391,2387,2390,2392,2391,2394,2395,2403,2402,2397,2389,2389,2390,2388,2386,2391,2393,2394,2391,2391,2392,2395,2399,2402,2402,2401,2400,2399,2400,2398,2401,0,0,1548,1560,1560,1558,1557,1558,1560,1560,1560,1561,1563,1564,1565,1565,0,0,2455,2461,2463,2466,2458,2462,2467,2472,2473,2472,2473,0,0,0,0,1582,1585,1587,1584,1588,1587,1590,1589,0,2532,2532,2534,2537,2539,2531,2509,2477,2457,2446,2440,2433,2427,2422,2419,2420,2421,2426,2428,2425,2424,2425,2434,2439,2444,2452,2459,2461,2462,2474,2529,2598,2621,2627,2631,2637,2638,2641,0,0,0,0,0,0,0,0,0,0,0,0,0,0,0,0,0,0,0,0,0,0,0,0,0,0,0,0,0,0,0,0,0,0,0,0,0,0,0,0,0,0,0,0,0,0,1385,1359,1401,1304,0,0,0,2305,2326,2321,2311,2304,0,0,0,0,0,0,0,0,2309,0,0,0,0,0,0,0,0,0,0,0,0,0,0,0,0,0,2206,2210,2203,2196,2194,2191,2182,2175,2161,0,0,0,0,0,0,0,0,0,0,0,0,0,0,0,0,0,0,0,0,0,0,0,0,0,0,0,0,0,0
0,0,0,0,0,0,0,0,1428,1417,1412,1403,1408,1403,1417,1431,1452,1459,1470,1477,1497,1496,1506,1513,1522,1525,1534,1551,1568,1581,1587,1591,1594,1594,1600,1609,1617,1620,1626,1633,1634,1631,1630,1629,1626,1624,1626,1626,1621,1610,0,1408,1393,1392,1402,0,1674,1702,1729,1756,1768,1764,1756,1746,1744,1741,1741,1743,1748,1759,1757,1751,1760,0,2061,0,1847,1840,0,0,1493,1493,1490,1487,1481,1482,1492,1503,2246,2252,2258,2264,2270,2272,2279,2286,2290,2292,2296,2304,2307,2308,2312,2315,2317,2317,2321,2326,0,1487,1483,1483,1479,1474,1469,1470,1473,1475,1476,1472,1472,1474,1473,1472,1472,1475,1472,1472,1473,1475,1475,1477,1477,1475,1476,1477,1480,1479,1477,1478,1476,1479,1480,1481,1480,1480,1478,1477,1476,1480,1483,1486,1485,1486,1489,1490,1487,1484,1484,1483,1490,1496,1495,0,0,1495,0,0,0,0,0,0,0,0,0,0,0,0,0,0,0,0,0,0,0,0,0,0,0,0,0,0,0,0,0,1514,0,1521,0,1520,1523,1528,1539,1539,0,1533,1533,0,0,0,0,0,0,0,0,0,0,0,0,0,0,0,0,0,0,0,0,0,0,0,0,0,0,0,0,0,0,0,0,0,0,0,0,0,0,0,0,0,0,0,0,0,0,0,0,0,0,0,0,0,0,2349,0,2358,0,0,0,0,2356,0,0,0,0,0,0,0,2380,0,0,0,0,2393,0,0,0,2402,0,0,2369,2372,0,2366,2363,2375,2385,0,0,2385,0,2398,0,0,2402,2392,0,0,0,0,0,0,1547,1555,1557,1559,1558,1559,1559,1559,1558,1559,1562,1566,1565,1566,1564,1565,0,0,0,0,0,0,0,0,0,0,0,0,0,1564,1566,1570,1580,1585,1584,1583,1585,1585,1588,1585,0,2531,2534,2536,2539,2533,2516,2484,2456,2442,2433,2430,2426,2422,2419,2415,2417,2417,2420,2423,2423,2426,2426,2432,2438,2445,2456,2464,2468,2470,2489,2553,2608,2630,2634,2637,2633,2631,2627,0,0,0,0,0,0,0,0,0,0,0,0,0,0,0,0,0,0,0,0,0,0,0,0,0,0,0,0,0,0,0,0,0,0,0,0,0,0,0,0,0,0,0,0,0,0,0,1402,1352,1416,1399,0,0,2299,2314,2305,2299,2298,2297,0,0,0,0,2390,0,0,0,0,0,0,0,0,0,0,0,0,0,0,0,0,0,0,0,0,0,2214,2208,2201,2195,2193,2186,2180,2162,0,0,0,0,0,0,0,0,0,0,0,0,0,0,0,0,0,0,0,0,0,0,0,0,0,0,0,0,0,0
0,1995,0,0,0,0,0,0,0,1416,1408,1405,1409,1410,1419,1434,1451,1454,1463,1487,1504,1509,1509,1506,1506,1519,1531,1557,1573,1582,1584,1593,1594,1597,1605,1614,1620,1624,1627,1638,1640,1640,1635,1636,1633,1632,1628,1626,1622,1611,0,1402,1392,1395,1412,0,1668,1682,1717,1746,1754,1745,1733,1727,1734,1740,1743,1745,1750,0,1761,1752,1757,0,2064,0,1853,1844,0,0,1487,1487,1483,1478,1475,1477,1487,1495,2251,2249,2253,2263,2272,2276,2279,2285,2288,2294,2299,2307,2308,2310,2313,2316,2319,2322,2326,2332,2333,0,0,1474,1471,1474,1473,1476,1474,1475,1476,1474,1472,1472,1473,1473,1472,1472,1470,1471,1473,1475,1476,1476,1477,1476,1477,1477,1479,1479,1478,1476,1477,1478,1480,1480,1481,1482,1482,1479,1478,1478,1481,1486,1486,1488,1486,1488,1487,1487,1486,1486,1489,1492,1491,1491,1491,1493,1490,1490,1491,1496,1499,1498,1495,1493,1493,1496,1497,1499,1498,1498,1494,1495,1494,1497,1497,1497,1499,1499,1499,1499,1502,1505,1503,1502,1498,1503,1505,1508,1505,1507,1507,1510,1511,1514,1511,1509,1514,1516,1515,1510,1509,1507,1510,1515,1519,1517,1521,1526,1527,1523,1524,1522,1523,1524,1526,1528,1526,1522,1525,1531,1532,1531,1534,1536,1537,1528,1525,1526,1532,1538,1536,1532,1528,1534,1536,1535,1532,1533,1546,1545,1542,1540,1538,1538,1536,1534,1534,1544,1547,1540,1537,1542,1543,1543,1538,1535,0,1539,0,1546,1544,1551,1544,1547,1543,1541,1543,1556,1557,1551,1554,1553,1550,0,0,0,1553,0,1550,1551,1555,1557,1562,1566,1566,0,0,0,1553,0,0,1551,0,1557,1555,1549,1557,1564,1565,1564,1557,1556,1556,1560,1561,1563,1562,1562,1561,1562,1564,1568,1568,1566,1564,1565,1564,0,0,0,0,0,0,0,0,1563,1567,1565,1573,1571,1570,1572,1575,1580,1579,1582,1586,1589,1589,1573,0,2529,2531,2534,2534,2525,2498,2466,2440,2431,2425,2424,2422,2420,2419,2414,2414,2413,2415,2420,2423,2429,2426,2427,2428,2441,2453,2463,2467,2477,2511,2579,2616,2631,2636,2637,2631,2628,2626,0,0,0,0,0,0,0,0,0,0,0,0,0,0,0,0,0,0,0,0,0,0,0,0,0,0,0,0,0,0,0,0,0,0,0,0,0,0,0,0,0,0,1429,0,0,0,1414,1410,1385,1376,1390,0,0,2304,2300,2288,2284,2287,2301,2335,0,0,0,0,2357,0,0,0,0,0,0,0,0,0,0,0,0,0,0,0,0,0,0,0,0,2208,2206,2199,2197,2194,2191,2182,0,0,0,0,0,0,0,0,0,0,0,0,0,0,0,0,0,0,0,0,0,0,0,0,0,0,0,0,0,0,0
0,0,0,0,0,0,0,0,0,1404,1406,1404,1416,1420,1429,1438,1454,1457,1460,1496,1504,1507,1505,1507,1506,1518,1537,1561,1573,1578,1583,1594,1595,1601,1608,1620,1629,1636,1639,1643,1644,1643,1636,1637,1638,1639,1635,1631,1627,1617,0,1402,1397,1403,1421,0,1664,1676,1711,1738,1745,1738,1732,1728,1734,1739,1745,1746,1748,1750,1751,1747,1752,1789,0,0,1853,1850,0,0,1491,1485,1480,1479,1477,1480,1485,0,2257,2251,2253,2260,2268,2274,2278,2284,2289,2296,2299,2305,2307,2312,2316,2320,2323,2325,2325,2329,2334,2348,0,0,1470,1475,1476,1478,1475,1477,1477,1477,1474,1473,1475,1476,1474,1472,1471,1470,1473,1474,1475,1474,1474,1473,1473,1474,1477,1479,1478,1476,1476,1478,1479,1479,1479,1481,1482,1480,1479,1478,1479,1482,1483,1484,1484,1486,1487,1489,1487,1486,1486,1488,1487,1487,1489,1491,1491,1489,1489,1490,1491,1491,1492,1492,1493,1493,1493,1497,1496,1496,1493,1494,1495,1496,1495,1494,1497,1496,1497,1497,1499,1500,1497,1498,1497,1501,1501,1503,1504,1505,1504,1504,1506,1509,1506,1502,1507,1508,1510,1505,1506,1507,1508,1512,1512,1512,1514,1514,1516,1512,1514,1513,1516,1516,1519,1521,1521,1520,1519,1520,1520,1520,1522,1525,1526,1523,1521,1520,1523,1527,1526,1524,1522,1525,1525,1526,1524,1527,1531,1532,1533,1530,1530,1530,1527,1527,1528,1534,1535,1535,1535,1535,1534,1531,1530,1531,1536,1534,1533,1533,1538,1541,1537,1536,1534,1537,1541,1546,1548,1546,1544,1544,1546,1547,1550,1548,1545,1542,1543,1547,1549,1550,1553,1552,1553,1552,1549,1546,1544,1549,1550,1549,1548,1551,1552,1553,1555,1557,1561,1560,1559,1557,1557,1560,1562,1564,1564,1563,1563,1562,1563,1566,1567,1567,1564,1565,1565,1564,1566,1567,1565,1561,1561,1561,1565,1565,1567,1565,1570,1570,1572,1572,1573,1578,1578,1582,1585,1590,1589,0,2530,2527,2530,2526,2523,2506,2478,2449,2434,2425,2423,2418,2418,2416,2418,2414,2413,2411,2415,2420,2424,2427,2422,2423,2427,2442,2453,2459,2467,2487,2542,2601,2624,2634,2638,2638,2631,2627,0,0,0,0,0,0,0,0,0,0,0,0,0,0,0,0,0,0,0,0,0,0,0,0,0,0,0,0,0,0,0,0,0,0,0,0,0,0,0,0,0,0,0,1456,0,0,0,1362,1384,0,1362,0,1391,0,2303,2300,2298,2301,2294,2314,0,0,0,0,0,0,2336,0,0,0,0,0,0,0,0,0,0,0,0,0,0,0,0,0,0,0,2203,2204,2203,2201,2199,2191,2183,2163,0,0,0,0,0,0,0,0,0,0,0,0,0,0,0,0,0,0,0,0,0,0,0,0,0,0,0,0,0,0
0,0,0,0,0,0,0,0,0,1401,1402,1405,1414,1424,1430,1435,1451,1456,1487,1492,1496,1503,1503,1506,1509,1521,1540,1560,1571,1573,1578,1590,1596,1606,1613,1627,1635,1644,1641,1643,1640,1645,1640,1641,1642,1643,1640,1638,1634,1628,0,1405,1396,1399,1417,0,1669,1685,1716,1735,1741,1738,1733,1730,1736,1740,1745,1744,1746,1745,1748,1750,1756,0,0,0,1852,0,0,1495,1490,1481,1474,1477,1479,1482,1481,0,2251,2253,2257,2264,2270,2276,2277,2284,2289,2295,2298,2304,2309,2315,2319,2322,2326,2328,2329,2332,2333,2338,2342,0,0,1478,1481,1481,1476,1478,1478,1479,1476,1473,1473,1476,1475,1473,1471,1471,1474,1475,1476,1474,1474,1473,1473,1477,1479,1481,1479,1477,1477,1479,1482,1479,1480,1481,1483,1483,1482,1481,1481,1483,1484,1484,1484,1485,1486,1488,1486,1486,1486,1488,1487,1487,1490,1493,1493,1490,1489,1490,1491,1491,1492,1493,1493,1493,1493,1496,1495,1495,1492,1495,1496,1496,1495,1493,1495,1495,1497,1497,1498,1500,1498,1500,1500,1503,1502,1503,1504,1504,1502,1503,1505,1507,1506,1504,1505,1507,1508,1507,1508,1508,1507,1510,1510,1511,1512,1513,1514,1510,1512,1512,1515,1516,1517,1517,1519,1519,1517,1515,1515,1518,1519,1522,1523,1522,1520,1518,1519,1523,1523,1524,1521,1524,1523,1525,1525,1527,1528,1529,1529,1527,1529,1530,1532,1530,1529,1529,1531,1533,1534,1534,1530,1530,1530,1533,1534,1535,1534,1536,1537,1539,1536,1536,1536,1539,1540,1541,1543,1545,1542,1540,1542,1545,1549,1546,1544,1543,1544,1547,1547,1547,1548,1547,1550,1550,1549,1546,1547,1550,1548,1547,1548,1552,1554,1555,1555,1555,1557,1558,1558,1559,1559,1561,1562,1563,1564,1564,1564,1563,1564,1564,1566,1564,1566,1565,1568,1566,1566,1565,1564,1563,1565,1564,1565,1564,1568,1567,1569,1568,1569,1569,1570,1576,1575,1580,1582,1589,0,0,2524,2525,2524,2520,2508,2484,2458,2442,2429,2422,2421,2417,2415,2411,2415,2414,2415,2413,2417,2419,2423,2424,2421,2421,2424,2436,2443,2453,2468,2510,2576,2614,2628,2633,2639,2642,2642,2636,0,0,0,1468,0,0,1407,1431,0,1353,0,0,0,0,0,0,0,0,0,0,0,0,0,0,0,0,0,1439,0,0,0,0,0,0,0,0,0,0,0,0,0,0,0,0,1454,0,0,1375,1361,1357,0,1383,0,1320,0,2313,2321,2315,2306,2293,2291,0,0,0,2371,2313,0,0,0,0,0,0,0,0,0,0,0,0,0,0,0,0,0,0,0,0,2197,2203,2197,2198,2197,2195,2186,0,0,0,0,0,0,0,0,0,0,0,0,0,0,0,0,0,0,0,0,0,0,0,0,0,0,0,0,0,0,0
0,0,0,0,0,0,0,0,0,1402,1404,1400,1407,1417,1430,1438,1438,1486,1490,1498,1500,1507,1513,1511,1515,1524,1549,1555,1567,1564,1574,1584,1600,1610,1614,1623,1635,1644,1645,1643,1641,1643,1642,1645,1640,1644,1645,1646,1641,1633,0,1407,1398,1397,1412,0,1677,1691,1725,1735,1740,1739,1736,1735,1739,1741,1744,1744,1744,1744,1747,1751,1758,0,0,0,1856,0,0,0,1478,1472,1468,1473,1475,1478,1477,0,2250,2255,2261,2266,2271,2276,2280,2286,2292,2296,2298,2302,2308,2314,2318,2323,2327,2330,2333,2334,2335,2337,2340,2347,2355,0,0,1470,1473,1473,1478,1478,1478,1475,1477,1478,1479,1476,1473,1470,1473,1475,1476,1475,1474,1474,1474,1479,1480,1482,1480,1479,1478,1479,1482,1480,1480,1482,1484,1485,1483,1484,1484,1484,1483,1482,1485,1487,1487,1487,1486,1487,1487,1490,1488,1488,1489,1494,1496,1494,1492,1491,1491,1490,1492,1492,1493,1494,1494,1496,1494,1494,1493,1497,1498,1497,1496,1495,1495,1495,1497,1498,1498,1499,1498,1501,1502,1504,1502,1503,1505,1505,1504,1504,1506,1506,1506,1504,1505,1504,1507,1507,1509,1509,1509,1511,1511,1513,1513,1513,1513,1510,1512,1515,1518,1517,1519,1518,1519,1516,1516,1514,1515,1519,1519,1521,1521,1521,1519,1518,1519,1521,1521,1522,1521,1524,1524,1526,1524,1528,1527,1528,1527,1528,1529,1530,1531,1531,1530,1529,1529,1532,1533,1534,1532,1534,1534,1536,1536,1537,1537,1535,1535,1537,1536,1535,1537,1541,1543,1542,1542,1545,1542,1539,1539,1543,1546,1542,1542,1543,1546,1548,1548,1548,1546,1545,1547,1549,1549,1548,1549,1549,1548,1547,1548,1551,1554,1555,1556,1555,1556,1557,1557,1559,1560,1561,1563,1564,1564,1562,1563,1561,1563,1563,1566,1564,1566,1566,1566,1564,1563,1563,1564,1564,1566,1566,1566,1564,1567,1567,1570,1570,1570,1571,1570,1575,1575,1580,1580,0,0,2517,2522,2524,2524,2515,2492,2460,2441,2430,2423,2417,2416,2413,2411,2408,2410,2411,2415,2414,2415,2412,2415,2416,2419,2422,2428,2434,2439,2453,2488,2551,2598,2622,2634,2637,2646,2650,2653,2640,2627,0,0,0,1467,1409,1396,1408,0,0,1450,0,0,0,0,0,1434,1435,0,0,0,0,0,0,0,0,1455,0,1434,0,0,0,0,0,0,0,0,0,0,0,0,0,0,0,0,0,0,0,0,1361,1375,0,1364,1366,0,2324,2333,2323,2308,2285,2278,0,0,0,0,0,0,0,0,0,0,0,0,0,0,0,0,0,0,0,0,0,0,0,0,0,2188,2197,2193,2189,2185,2183,2176,2133,0,0,0,0,0,0,0,0,0,0,0,0,0,0,0,0,0,0,0,0,0,0,0,0,0,0,0,0,0,0
0,0,0,0,0,0,0,0,0,1404,1398,1400,1400,1416,1431,1441,1471,1463,1474,1502,1499,1504,1509,1507,1512,1536,1554,1558,1560,1558,1565,1577,1595,1609,1613,1621,1633,1644,1646,1647,1643,1648,1650,1655,1647,1647,1651,1652,1648,1638,0,1402,1395,1397,1416,0,1685,1702,1727,1735,1739,1738,1735,1735,1742,1745,1745,1744,1744,1747,1749,1754,1760,0,0,0,1866,1874,0,1468,1470,1467,1462,1465,1470,1475,1477,1479,2254,2261,2266,2271,2274,2279,2283,2288,2293,2296,2300,2303,2309,2314,2319,2323,2328,2332,2334,2337,2337,2338,2341,2345,2348,2350,2351,0,0,0,0,1477,1479,1475,1478,1478,1479,1475,1470,1469,1472,1474,1476,1475,1476,1477,1480,1485,1483,1485,1483,1481,1481,1482,1488,1487,1486,1486,1486,1488,1486,1487,1488,1488,1487,1486,1487,1489,1487,1489,1489,1490,1491,1494,1492,1491,1492,1497,1499,1497,1495,1494,1494,1493,1493,1493,1496,1498,1499,1498,1496,1497,1498,1500,1501,1500,1499,1498,1496,1497,1497,1499,1499,1501,1501,1505,1506,1506,1505,1505,1506,1507,1507,1507,1508,1508,1508,1508,1508,1506,1508,1508,1512,1513,1514,1513,1515,1517,1518,1518,1516,1512,1514,1517,1522,1520,1522,1519,1520,1516,1515,1516,1519,1524,1522,1523,1522,1522,1521,1519,1520,1522,1524,1525,1524,1526,1526,1527,1525,1529,1529,1530,1528,1530,1530,1532,1534,1534,1532,1532,1531,1533,1534,1536,1534,1537,1537,1536,1535,1537,1538,1537,1536,1537,1539,1540,1542,1543,1544,1545,1545,1549,1546,1541,1539,1543,1546,1543,1543,1544,1546,1546,1548,1547,1547,1548,1550,1551,1551,1551,1553,1551,1549,1546,1544,1544,1547,1550,1552,1555,1557,1558,1557,1560,1561,1563,1563,1564,1564,1564,1564,1564,1565,1565,1567,1566,1568,1568,1567,1564,1562,1562,1562,1563,1565,1567,1567,1566,1569,1568,1571,1571,1572,1572,1570,1574,1574,1582,0,0,2516,2519,2519,2519,2513,2495,2462,2439,2427,2422,2414,2412,2411,2410,2408,2406,2407,2409,2414,2414,2414,2410,2411,2416,2422,2424,2426,2429,2435,2458,2516,2578,2610,2626,2635,2637,2646,2651,2656,2648,0,0,0,0,0,0,1419,0,0,0,0,0,0,0,0,0,1483,0,0,0,0,0,0,0,0,0,0,0,1447,0,0,0,0,0,0,0,0,0,0,0,0,0,0,0,0,0,0,0,0,1392,0,0,0,0,0,0,2320,2314,2302,2284,2269,2275,0,0,0,0,0,0,0,0,0,0,0,0,0,0,0,0,0,0,0,0,0,0,0,0,2153,2168,2173,2169,0,2157,2134,0,0,0,0,0,0,0,0,0,0,0,0,0,0,0,0,0,0,0,0,0,0,0,0,0,0,0,0,0,0,0
0,0,0,0,0,0,0,0,0,1382,1389,1394,1395,1412,1427,1445,1445,1454,1470,1482,1496,1502,1515,1520,1521,1538,1549,1551,1554,1558,1564,1574,1593,1605,1613,1618,1630,1641,1650,1653,1656,1656,1663,1669,1664,1652,1650,1654,0,0,0,1397,1395,1400,1424,0,1681,1710,1733,1737,1735,1735,1736,1739,1743,1745,1744,1744,1745,1750,1752,1752,1755,0,0,2004,1884,1878,0,0,1470,1468,1463,1463,1466,1472,1472,0,0,2264,2269,2272,2277,2282,2288,2291,2296,2299,2304,2305,2310,2314,2318,2323,2327,2331,2334,2338,2339,2340,2342,2345,2349,2350,2352,2353,2354,2354,0,0,0,0,0,1473,1474,1473,1470,1469,1471,1474,1477,1476,1477,1478,0,0,0,1488,1486,1481,1481,1490,1502,1500,1490,1484,1485,1486,1486,1487,1488,1491,1488,1488,1487,1490,1491,1495,1495,1494,1494,1497,1494,1493,1493,1498,1499,1497,1496,1493,1490,1491,1493,1493,1498,1500,1500,1499,1501,1503,1506,1506,1505,1504,1503,1503,1502,1499,1498,1500,1503,1505,1503,1504,1506,1507,1507,1510,1512,1515,1515,1516,1517,1517,1514,1516,1517,1515,1513,1511,1519,1522,1524,1521,1523,1524,1525,1525,1523,1519,1520,1524,1528,1526,1527,1528,1529,1522,1521,1524,1528,1529,1526,1524,1525,1527,1526,1525,1524,1524,1526,1526,1527,1528,1530,1531,1530,1531,1534,1535,1534,1535,1532,1532,1531,1533,1533,1536,1536,1536,1535,1536,1538,1541,1541,1538,1539,1539,1541,1537,1536,1539,1542,1543,1545,1545,1551,1552,1550,1549,1547,1545,1544,1546,1546,1544,1543,1543,1545,1545,1548,1550,1550,1552,1551,1552,1551,1553,1554,1553,1550,1543,1539,1536,1539,1543,1548,1553,1558,1559,1558,1559,1562,1564,1567,1567,1567,1565,1565,1564,1566,1567,1567,1568,1569,1570,1568,1567,1563,1563,1561,1561,1564,1567,1569,1568,1568,1566,1569,1572,1573,1573,1570,0,0,0,2499,2511,2515,2518,2517,2511,2490,2463,2442,2430,2422,2416,2412,2410,2410,2409,2408,2404,2402,2404,2408,2411,2410,2410,2411,2414,2422,2424,2428,2431,2437,2463,2531,2587,2615,2627,2638,2640,2645,2645,2650,2650,0,0,0,0,0,0,0,0,1470,0,0,0,0,0,1367,0,0,0,0,0,0,0,0,0,0,1453,0,0,0,0,0,0,0,0,0,0,0,0,0,0,0,0,0,0,1454,0,0,1426,1433,0,0,0,0,0,0,0,2301,2306,2300,2285,2274,2256,0,0,0,0,0,0,0,0,0,0,0,0,0,0,0,0,0,0,0,0,0,0,0,0,0,2117,0,0,0,0,0,0,0,0,0,0,0,0,0,0,0,0,0,0,0,0,0,0,0,0,0,0,0,0,0,0,0,0,0,0,0,0
0,0,0,0,0,0,0,0,0,1386,1382,1395,1403,1418,1425,1433,1441,1449,1463,1484,1483,1493,1507,1528,1529,1532,1540,1549,1555,1568,1576,1583,1593,1604,1616,1623,1634,1640,1652,1658,1665,1671,1680,1690,1686,1606,0,0,0,0,0,1398,1399,1404,1423,0,1670,1729,1736,1736,1735,1736,1736,1740,1742,1744,1743,1743,1746,1750,1753,1751,1755,0,0,0,1881,0,0,0,1468,1468,1461,1460,1459,1464,1468,0,0,2266,2270,2274,2280,2286,2289,2293,2298,2301,2305,2306,2312,2316,2320,2325,2327,2331,2332,2339,2341,2341,2341,2343,2347,2350,2353,2354,2354,2354,2355,2357,2357,0,0,0,0,1461,1471,1471,1472,1472,1474,1474,1478,0,0,0,0,0,0,0,0,0,0,0,0,0,0,0,0,0,0,0,0,0,0,0,0,0,0,0,0,0,0,0,0,0,0,0,0,0,0,0,0,0,0,0,0,0,0,0,0,0,0,0,0,0,1511,0,0,0,1505,0,1513,1509,1516,1521,1529,1531,1533,1529,1528,1534,1542,0,1545,1543,1543,1538,1536,1538,1557,1555,1541,1547,1542,1536,1538,1550,1556,1546,1542,1543,1550,1548,1552,1547,1555,1549,1545,1546,1550,1546,1541,1543,1547,1547,1546,1543,1543,1541,1542,1540,1540,1538,1542,1545,1543,1539,1543,1551,1554,1549,1545,1544,1544,1544,1542,1545,1547,1548,1544,1542,1547,1548,1547,1542,1544,1548,1549,1547,1547,1549,1554,1552,1553,1549,1558,1561,1560,1554,1555,1553,1554,1555,1556,1554,1554,1551,1549,1547,1552,1557,1561,1561,1558,1556,1552,1554,1562,1560,1550,1541,1536,1533,1535,1538,1544,1553,1562,1562,1561,1560,1563,1564,1565,1564,1566,1564,1564,1565,1568,1569,1570,1569,1569,1570,1572,1573,1568,1564,1559,1560,1563,1567,1568,1567,1568,1566,1571,0,0,0,0,0,2480,2482,2491,2502,2511,2515,2511,2491,2459,2437,2426,2424,2420,2416,2412,2410,2410,2407,2408,2404,2404,2403,2405,2409,2408,2410,2411,2416,2421,2422,2426,2431,2436,2461,2537,2589,2614,2627,2638,2643,2645,2645,2646,0,0,0,0,0,0,0,0,0,0,0,0,0,0,0,0,0,0,0,0,0,0,0,0,0,1442,0,0,1472,0,0,0,0,0,0,0,0,0,0,0,0,0,0,0,0,0,0,0,0,1413,1383,1274,1279,0,0,0,0,2287,2300,2296,2285,2268,2268,0,0,0,0,0,0,0,0,0,0,0,0,0,0,0,0,0,0,0,0,0,0,0,0,0,0,0,0,0,0,0,0,0,0,0,0,0,0,0,0,0,0,0,0,0,0,0,0,0,0,0,0,0,0,0,0,0,0,0,0,0,0
0,0,0,0,0,0,0,0,0,1396,1394,1402,1414,1428,1428,1430,1441,1451,1474,1486,1491,1502,1512,1531,1536,1542,1537,1549,1556,1572,1582,1592,1602,1610,1625,1624,1632,1634,1647,1652,1669,1680,1697,1702,0,0,0,0,0,0,0,1396,1397,1400,1422,0,1663,1689,1731,1732,1737,1738,1740,1743,1742,1742,1742,1745,1746,1747,1747,1747,1752,0,0,0,0,0,0,1455,1459,1464,1462,1459,1452,1455,1463,0,0,2269,2273,2277,2283,2288,2291,2294,2299,2302,2305,2305,2311,2316,2320,2324,2327,2331,2334,2338,2340,2340,2342,2344,2348,2352,2354,2355,2355,2355,2357,2358,2358,2357,2356,2352,2360,0,1472,1473,1474,1471,1471,1473,0,0,2358,2361,2366,2371,2380,2387,2347,2279,2269,2267,2268,0,0,0,2430,2429,2431,0,0,0,0,0,0,0,0,0,0,0,0,0,2357,2356,2349,2341,0,2337,2333,2333,2334,2337,2336,2338,0,2335,2333,2339,2339,2337,0,0,0,2322,2312,2309,0,2304,2301,2301,2298,2293,2287,2283,2283,2282,2274,2266,2264,2264,2261,2256,2258,2258,2259,2255,2253,2251,2253,2251,2248,2245,2245,2248,2248,2248,2247,2248,2248,2252,2253,2254,2251,2251,2255,2256,2256,2259,2265,2267,2264,2266,2271,2279,2280,2275,2273,2273,2277,2282,0,0,0,2287,0,0,0,0,0,0,2301,0,0,0,0,0,0,0,0,0,0,0,0,0,0,0,0,0,0,0,0,0,0,0,0,0,0,0,0,0,0,0,0,0,0,0,0,0,0,0,0,0,0,0,0,0,0,0,0,0,0,0,1535,0,0,0,1563,1557,1562,1563,1565,1565,1566,1567,1568,1567,1567,1567,1569,1571,1570,1569,1569,1570,1572,1569,1564,1562,1557,1560,1562,1564,1565,1563,0,0,0,0,0,2472,2479,2483,2484,2484,2487,2494,2503,2503,2493,2468,2442,2428,2421,2421,2416,2412,2409,2407,2407,2405,2406,2404,2402,2401,2403,2407,2406,2406,2409,2414,2419,2420,2422,2426,2430,2459,2536,2590,2616,2634,2643,2648,2645,2644,2642,0,0,0,0,0,0,0,0,0,0,0,0,0,0,0,0,0,0,0,0,0,0,0,0,0,0,0,1440,1419,1427,1446,0,0,0,0,0,0,0,0,0,0,0,0,0,0,1404,0,0,0,0,1396,1338,1351,0,0,0,0,0,0,0,0,2275,0,0,0,0,0,0,0,0,0,0,0,0,0,0,0,0,0,0,0,0,0,0,0,0,0,0,0,0,0,2128,0,0,0,0,0,0,0,0,0,0,0,0,0,0,0,0,0,0,0,0,0,0,0,0,0,0,0,0,0,0,0,0,0
0,0,0,0,0,0,0,0,0,1401,1402,1408,1422,1439,1441,1428,1435,1458,1476,1480,1492,1504,1512,1524,1534,1547,1548,1551,1558,1571,1582,1591,1602,1612,1623,1619,1625,1631,1647,1654,1669,1683,1699,1708,0,0,0,0,0,0,0,1393,1392,1398,1418,0,1663,1690,1724,1726,1734,1736,1738,1737,1741,1744,1745,1746,1745,1744,1744,1748,0,0,0,0,0,0,0,1453,1450,1454,1454,1454,1450,1452,1457,0,0,2272,2274,2279,2283,2288,2290,2295,2298,2302,2303,2305,2311,2318,2321,2325,2327,2332,2334,2337,2340,2342,2343,2344,2347,2351,2353,2354,2356,2358,2359,2359,2358,2357,2358,2360,2365,0,0,1474,1476,1469,1467,1469,0,0,2357,2360,2364,2369,2378,2386,2347,2279,2272,2272,0,2422,2437,2435,2433,2427,2428,2429,2431,2427,2423,2416,2402,2390,2382,2379,2372,2372,2367,2364,2358,2359,2353,2346,2342,2342,2342,2340,2340,2340,2340,2342,2342,2342,2342,2343,2343,2340,2338,2337,2334,2329,2323,2320,2319,2314,2311,2309,2306,2302,2297,2295,2293,2291,2286,2282,2281,2278,2273,2267,2268,2268,2268,2264,2262,2261,2263,2262,2260,2258,2257,2257,2255,2256,2256,2259,2259,2261,2262,2265,2264,2265,2266,2269,2270,2274,2278,2280,2278,2278,2281,2286,2288,2288,2289,2290,2293,2294,2295,2300,2303,2304,2301,2303,2304,2306,2309,2311,2309,2307,2309,2313,2317,2320,2318,2321,2323,2324,2326,2329,2326,2328,2332,2334,2334,2338,2339,2337,2337,2340,2338,2337,2343,2348,2348,2347,2340,2339,2345,2350,2353,2353,2354,2352,2353,2357,2357,2355,2351,2354,2359,2363,2363,2363,2362,2365,2361,2363,0,0,2366,2364,2362,2366,0,0,0,1566,1567,1566,1566,1567,1568,1569,1569,1569,1571,1570,1570,1569,1569,1569,1566,0,0,1555,1557,1558,1561,1561,1559,1549,0,2459,2462,2464,2465,2474,2478,2484,2486,2488,2489,2491,2496,2490,2473,2449,2432,2423,2418,2419,2412,2408,2405,2405,2405,2403,2406,2406,2408,2403,2404,2407,2407,2403,2404,2411,2414,2418,2418,2424,2427,2453,2532,2591,2619,2635,2640,2645,2647,2657,0,0,0,0,0,0,0,1436,1471,0,1460,1380,1380,1418,0,0,0,0,0,0,0,0,0,0,0,0,0,0,0,1419,1411,1442,0,0,0,0,0,0,0,0,0,0,0,0,0,0,0,0,1330,0,0,0,1348,0,0,0,0,0,0,0,0,0,0,0,0,0,0,0,0,0,0,0,0,0,0,0,0,0,0,0,0,0,0,0,0,0,0,0,2122,2171,2178,2180,2167,2162,2154,2142,0,0,0,0,0,0,0,0,0,0,0,0,0,0,0,0,0,0,0,0,0,0,0,0,0,0,0,0,0,0
0,0,0,0,0,0,0,0,0,1395,1404,1409,1425,1443,1448,1432,1434,1449,1479,1479,1479,1505,1516,1521,1529,1539,1547,1552,1560,1571,1578,1583,1593,1605,1616,1616,1627,1640,1651,1655,1667,1683,1697,1709,0,0,0,0,0,0,1362,1382,1387,1393,1412,0,1672,1713,1740,1734,1739,1737,1739,1739,1744,1746,1746,1746,1745,1746,1745,1752,0,0,0,0,0,0,0,1456,1449,1449,1450,1453,1452,1455,1458,0,0,2270,2273,2280,2286,2290,2291,2294,2297,2302,2305,2309,2314,2319,2322,2326,2328,2331,2332,2334,2339,2343,2346,0,2348,2349,2351,2353,2357,2359,2361,2361,2361,2359,2361,2360,2362,0,0,1474,0,0,0,1467,0,0,2356,2359,2367,2375,2386,2393,2348,2280,2274,2275,0,2443,2452,2453,2444,2430,2425,2430,2435,2433,2428,2420,2407,2393,2386,2382,2378,2375,2371,2365,2360,2358,2355,2351,2347,2345,2343,2342,2341,2340,2341,2343,2343,2344,2344,2344,2344,2342,2342,2340,2339,2334,2329,2324,2324,2318,2316,2312,2310,2307,2303,2301,2296,2291,2288,2285,2284,2279,2278,2274,2275,2273,2273,2268,2267,2263,2263,2263,2261,2259,2258,2260,2260,2261,2261,2264,2265,2265,2265,2267,2270,2271,2270,2270,2272,2277,2283,2286,2282,2280,2282,2287,2290,2291,2292,2294,2297,2300,2301,2304,2305,2307,2306,2308,2308,2309,2313,2312,2313,2313,2316,2317,2321,2323,2323,2322,2323,2328,2330,2333,2330,2335,2336,2338,2338,2341,2342,2336,2336,2338,2341,2342,2346,2350,2349,2347,2343,2343,2346,2352,2355,2354,2355,2353,2357,2360,2360,2357,2357,2358,2363,2366,2368,2369,2366,2367,2364,2370,2372,2373,2370,2368,2369,2370,2373,0,0,1569,1568,1567,1567,1569,1569,1569,1569,1571,1572,1570,1569,1568,1569,1569,1559,0,0,1557,1559,1559,1556,1556,1556,0,0,2461,2462,2463,2464,2472,2475,2482,2485,2489,2487,2485,2481,2468,2450,2435,2424,2420,2417,2415,2408,2405,2404,2404,2404,2404,2406,2405,2405,2404,2406,2407,2407,2405,2404,2408,2410,2417,2420,2425,2428,2448,2508,2580,2613,2633,2635,2642,2650,0,0,0,0,1369,1369,0,0,0,0,0,1391,1365,0,1365,1489,1498,1425,1440,1460,0,0,1462,0,0,0,0,0,0,0,0,0,0,0,0,0,0,0,0,0,0,0,0,0,0,0,0,0,0,0,1429,1400,0,0,0,0,0,0,0,0,0,0,0,0,0,0,0,0,0,0,0,0,0,0,0,0,0,0,0,0,0,0,0,0,0,0,0,0,0,2179,2191,2193,2189,2180,2175,2169,2147,2098,0,0,0,0,0,0,0,0,0,0,0,0,0,0,0,0,0,0,0,0,0,0,0,0,0,0,0,0,0
0,0,0,0,0,0,0,0,0,1388,1394,1402,1416,1434,1441,1440,1441,1479,1460,1490,1502,1506,1519,1522,1524,1530,1541,1549,1557,1571,1583,1590,1595,1605,1610,1614,1632,1648,1656,1661,1669,1682,1695,1708,1719,0,0,0,0,0,0,1386,1389,1392,1409,0,1687,1717,1740,1737,1739,1737,1736,1735,1742,1746,1746,1747,1748,1750,1751,1755,0,0,0,0,0,0,0,1455,1448,1449,1450,1454,1456,1458,1458,0,0,2265,2270,2279,2285,2288,2289,2293,2296,2302,2306,2311,2315,2321,2322,2325,2326,2328,2330,2334,2340,2344,0,0,0,2347,2350,2351,2355,2357,2361,2363,2363,2362,2363,2362,2360,0,0,1472,0,0,0,1466,0,0,2356,2359,2366,2376,2392,2398,2350,2274,2270,2270,2325,0,2442,2434,2439,2436,2437,2439,2440,2433,2426,2421,2414,2403,2392,2385,2382,2377,2372,2366,2361,2359,2355,2352,2348,2345,2344,2343,2343,2341,2342,2344,2345,2346,2345,2343,2344,2343,2343,2342,2342,2337,2332,2327,2325,2320,2317,2313,2310,2308,2305,2303,2296,2292,2290,2288,2286,2281,2280,2277,2276,2273,2273,2270,2267,2264,2263,2263,2260,2260,2259,2261,2261,2262,2264,2265,2265,2265,2265,2266,2268,2270,2268,2272,2273,2280,2283,2285,2281,2279,2281,2287,2290,2294,2295,2297,2299,2301,2303,2304,2304,2307,2309,2313,2311,2311,2310,2310,2310,2312,2318,2318,2319,2320,2321,2321,2322,2324,2327,2331,2332,2336,2335,2335,2337,2341,2343,2337,2336,2338,2340,2342,2347,2350,2348,2346,2344,2342,2341,2347,2352,2353,2354,2353,2354,2357,2360,2359,2361,2361,2362,2362,2367,2370,2369,2367,2365,2370,2371,2372,2369,2371,2370,2371,2367,2366,0,0,1569,1568,1569,1569,1568,1568,1569,1571,1571,1570,1570,1570,1570,1568,0,0,0,0,1559,1556,0,1554,1557,0,0,2462,2462,2462,2463,2468,2471,2480,2484,2487,2482,2473,2462,2446,2435,2425,2421,2420,2419,2414,2409,2407,2405,2406,2404,2405,2405,2405,2406,2406,2406,2407,2405,2404,2401,2409,2412,2423,2424,2430,2430,2445,2481,2541,2590,2615,2624,0,0,0,0,0,0,0,0,0,0,0,0,0,0,0,0,0,0,0,0,0,0,1449,1412,1471,0,0,0,0,0,0,1433,1423,0,0,0,0,0,0,0,0,0,0,0,0,0,0,0,0,0,0,0,0,1347,0,0,0,0,0,0,0,0,0,0,0,0,0,0,0,0,0,0,0,0,0,0,0,0,0,0,0,0,0,0,0,0,0,0,0,0,2187,2192,2201,2197,2196,2188,2186,2177,2159,0,0,0,0,0,0,0,0,0,0,0,0,0,0,0,0,0,0,0,0,0,0,0,0,0,0,0,0,0,0
0,0,0,0,0,0,0,0,1370,1389,1398,1410,1419,1427,1434,1438,1447,1444,1459,1488,1503,1511,1516,1520,1518,1519,1538,1552,1562,1573,1583,1590,1601,1610,1614,1615,1634,1649,1658,1664,1671,1682,1692,1708,1719,1735,0,0,0,0,1405,1387,1390,1396,1415,0,1687,1711,1740,1740,1740,1740,1739,1739,1741,1745,1745,1747,1750,1752,1753,1752,0,0,0,2082,0,0,0,0,1450,1450,1451,1453,1454,1457,1458,0,0,2261,2269,2279,2285,2286,2288,2290,2295,2299,2304,2309,2315,2319,2324,2326,2328,2329,2330,2334,2341,2343,2346,0,2348,2348,2350,2352,2355,2357,2360,2362,2363,2363,2367,2367,2364,0,0,1470,1472,0,1463,1467,0,0,2354,2357,2368,2380,2394,2396,2340,2274,2270,2271,2332,2412,2420,2425,2431,2451,2456,2454,2446,2432,2424,2420,2415,2408,2402,2394,2387,2379,2373,2368,2364,2363,2357,2352,2346,2344,2344,2344,2343,2343,2345,2347,2347,2345,2343,2344,2347,2346,2345,2343,2344,2340,2334,2329,2327,2324,2318,2313,2310,2309,2306,2304,2298,2296,2294,2290,2285,2280,2281,2279,2278,2273,2274,2273,2271,2266,2264,2263,2261,2259,2260,2260,2263,2264,2265,2265,2264,2264,2264,2264,2266,2267,2267,2270,2274,2278,2280,2281,2278,2277,2282,2290,2291,2291,2292,2296,2297,2301,2303,2304,2302,2304,2307,2308,2308,2307,2310,2312,2313,2316,2321,2320,2321,2321,2322,2320,2322,2325,2327,2329,2335,2338,2338,2337,2337,2338,2341,2337,2336,2334,2336,2341,2344,2345,2341,2343,2342,2342,2340,2347,2350,2353,2352,2350,2354,2356,2360,2361,2366,2366,2365,2359,2364,2368,2371,2370,2367,2369,2367,2366,2365,2369,2372,2373,2368,2365,2360,0,0,1573,1573,1573,1571,1570,1570,1571,1571,1573,1574,1575,1574,0,0,2375,2378,0,1556,1555,0,1556,1556,0,0,2459,2457,2458,2460,2462,2466,2476,2481,2480,2470,2456,2442,2432,2424,2419,2416,2414,2412,2409,2408,2408,2408,2407,2405,2404,2403,2402,2404,2406,2407,2406,2403,2404,2403,2412,2415,2422,2421,2426,2429,2439,2459,2496,2547,2592,2603,0,0,0,0,0,0,0,0,0,0,0,0,0,0,0,0,0,0,0,0,0,0,0,1441,0,0,0,0,0,0,0,0,1374,0,0,0,0,0,0,0,0,0,0,0,0,0,0,0,0,1399,0,0,0,0,0,2444,2463,2489,0,0,0,0,0,0,0,0,0,0,0,0,0,0,0,0,0,0,0,0,0,0,0,0,0,0,0,0,0,0,0,0,2201,2202,2208,2206,2203,2196,2192,2184,2156,0,0,0,0,0,0,0,0,0,0,0,0,0,0,0,0,0,0,0,0,0,0,0,0,0,0,0,0,0,0
0,0,0,0,0,0,0,0,1389,1392,1401,1413,1422,1430,1425,1428,1432,1448,1456,1481,1487,1500,1505,1514,1528,1532,1541,1564,1565,1572,1575,1586,1598,1612,1616,1612,1620,1640,1652,1666,1671,1679,1685,1700,1704,1732,0,0,0,0,1418,1386,1390,1399,1421,0,1683,1706,1736,1737,1734,1739,1740,1741,1738,1742,1745,1748,1751,1752,1754,1753,0,0,0,0,0,0,0,1449,1447,1448,1452,1451,1452,1453,1458,0,0,2262,2270,2278,2283,2285,2287,2291,2296,2299,2303,2308,2313,2318,2322,2325,2327,2330,2333,2338,2344,2344,2346,2346,2349,2350,2352,2353,2355,2358,2360,2362,2362,2361,2363,2364,2365,2364,0,0,0,0,0,0,0,2355,2355,2355,2363,2376,2390,2392,2330,2276,2271,2272,2339,2412,0,2430,2436,0,2461,2460,2447,2425,2420,2422,2422,2417,2407,2394,2383,2376,2370,2370,2370,2370,2364,2355,2348,2347,2347,2346,2345,2347,2350,2351,2350,2348,2349,2347,2350,2347,2344,2344,2344,2342,2336,2333,2329,2325,2320,2316,2311,2309,2306,2304,2299,2297,2296,2292,2288,2283,2282,2278,2275,2269,2270,2272,2271,2269,2267,2266,2264,2262,2263,2261,2262,2264,2266,2267,2265,2265,2265,2265,2264,2263,2266,2271,2277,2279,2279,2279,2277,2278,2283,2288,2288,2287,2290,2294,2298,2301,2302,2302,2301,2302,2304,2305,2306,2306,2308,2311,2313,2317,2321,2324,2324,2323,2322,2322,2325,2326,2325,2327,2332,2332,2333,2332,2334,2334,2337,2339,2336,2336,2336,2342,2343,2343,2339,2342,2340,2342,2339,2345,2351,2355,2356,2353,2353,2357,2359,2360,2363,2364,2365,2360,2365,2366,2371,2369,2366,2366,2363,2365,2364,2368,2370,2371,2369,2367,2367,2366,0,0,0,0,1579,0,1576,1572,1565,0,0,0,0,0,2377,2374,0,0,1556,1554,1556,1555,1552,0,2464,2454,2454,2456,2459,2461,2464,2474,2477,2472,2458,2442,2430,2424,2420,2418,2416,2413,2414,2410,2409,2407,2408,2407,2404,2403,2402,2402,2404,2406,2406,2407,2404,2404,2404,2413,2415,2419,2416,2421,2425,2435,2444,2463,2498,2545,2562,0,0,0,0,0,0,0,0,0,0,0,0,0,0,0,0,0,0,0,0,0,0,1429,0,0,0,0,0,0,0,0,1390,1391,1381,0,0,0,0,0,0,0,0,0,0,0,0,0,0,0,0,0,0,0,1361,0,2444,2461,2489,0,0,0,0,0,0,0,0,0,0,0,0,0,0,0,0,0,0,0,0,0,0,0,0,0,0,0,0,0,0,0,0,2201,2201,2209,2207,2205,2197,2195,2186,2164,0,0,0,0,0,0,0,0,0,0,0,0,0,0,0,0,0,0,0,0,0,0,0,0,0,0,0,0,0,0
0,0,0,0,0,0,0,0,0,1399,1407,1416,1424,1428,1427,1423,1437,1451,1481,1476,1470,1476,1495,1506,1527,1537,1550,1568,1577,1577,1577,1579,1586,1603,1621,1619,1624,1636,1650,1661,1665,1669,1681,1696,0,0,0,0,0,0,1399,1387,1391,1401,1420,0,1682,1711,1739,1741,1734,1737,1736,1738,1736,1741,1746,1747,1750,1751,1754,1754,0,0,2118,0,0,0,0,1443,1445,1444,1449,1448,1448,1448,1454,0,0,2263,2270,2277,2282,2286,2288,2292,2295,2298,2303,2308,2313,2316,2321,2327,2330,2333,2337,2342,2346,2345,2346,2348,2351,2354,2355,2356,2356,2359,2361,2361,2361,2360,2362,2363,2365,2363,2359,0,0,0,0,0,2360,2355,2351,2350,2356,2371,2385,2389,2339,2283,2275,2277,0,0,0,0,0,0,0,0,0,2410,2423,2426,2426,2418,2407,2390,2383,2375,2371,2372,2372,2369,2361,2352,2349,2347,2348,2347,2347,2350,2353,2352,2351,2350,2349,2349,2349,2347,2344,2344,2344,2342,2337,2333,2330,2325,2320,2316,2311,2308,2306,2303,2300,2297,2294,2290,2286,2283,2280,2277,2275,2273,2273,2272,2271,2271,2268,2266,2265,2264,2264,2261,2265,2265,2267,2264,2265,2264,2268,2267,2268,2267,2271,2272,2276,2274,2276,2277,2278,2278,2283,2286,2288,2286,2289,2294,2297,2300,2301,2302,2302,2300,2301,2302,2304,2306,2310,2315,2317,2319,2318,2320,2322,2321,2319,2320,2323,2325,2324,2326,2330,2332,2332,2332,2332,2332,2333,2336,2336,2336,2336,2338,2339,2340,2337,2341,2339,2341,2342,2347,2352,2355,2357,2354,2353,2353,2356,2358,2361,2362,2363,2362,2365,2367,2370,2369,2366,2364,2363,2365,2366,2368,2370,2370,2370,2368,2371,2372,2374,2371,2368,2368,2370,0,0,0,2376,2382,2382,2384,2384,2384,2383,2384,2383,0,0,1557,0,0,0,0,2446,2445,2447,2452,2458,2459,2461,2467,2468,2461,2445,2434,2426,2424,2420,2415,2410,2408,2412,2411,2409,2406,2409,2408,2406,2402,2401,2400,2401,2402,2404,2405,2406,2405,2403,2409,2410,2413,2411,2416,2422,2431,2433,2444,2464,2507,2529,0,0,0,0,0,0,0,0,0,0,0,0,0,0,0,0,0,0,0,0,0,0,1446,1420,0,0,0,0,0,0,0,1411,1407,1412,1420,0,0,0,0,0,0,0,0,0,0,0,0,1518,1496,0,0,0,0,1371,0,0,2454,2487,0,0,0,0,0,0,0,0,0,0,0,0,0,0,0,0,0,0,0,0,0,2275,0,0,0,0,0,0,0,0,0,0,0,2204,2209,2207,2202,2197,2194,2189,2173,0,0,0,1992,1981,0,0,0,0,0,0,0,0,0,0,0,0,0,0,0,0,0,0,0,0,0,0,0,0,0
0,0,0,0,0,0,0,0,0,1404,1407,1411,1412,1419,1431,1444,1460,1458,1478,1476,1475,1477,1492,1514,1510,1530,1553,1571,1568,1577,1587,1586,1591,1603,1620,1626,1632,1642,1656,1667,1669,1674,1681,1688,0,0,0,0,0,0,1401,1393,1394,1401,1419,0,1681,1703,1736,1740,1735,1734,1733,1733,1735,1742,1747,1749,1750,1752,1754,1756,0,0,2090,0,0,0,0,1439,1444,1443,1445,1445,1447,1448,1451,0,0,2262,2268,2275,2280,2287,2290,2293,2297,2301,2306,2310,2313,2316,2319,2325,2329,2333,2337,2343,2345,2346,2347,2349,2351,2353,2355,2356,2357,2360,2361,2360,2359,2360,2361,2362,2364,2363,2361,2363,2364,2364,2364,2364,2362,2357,2352,2350,2353,2368,2383,2390,2342,2286,2276,2277,2328,2389,2414,0,2431,2428,2446,2446,2422,2437,2425,2427,2427,2413,2396,2383,2381,2376,2373,2372,2372,2367,2361,2356,2354,2351,2350,2349,2350,2351,2353,2352,2353,2353,2354,2351,2349,2346,2344,2346,2347,2344,2336,2330,2327,2327,2323,2318,2313,2311,2308,2305,2301,2297,2294,2289,2284,2282,2279,2276,2273,2273,2273,2270,2269,2269,2269,2267,2265,2267,2267,2265,2266,2265,2269,2267,2268,2267,2270,2268,2267,2266,2270,2272,2272,2273,2275,2278,2278,2279,2283,2286,2287,2288,2290,2297,2297,2299,2299,2298,2300,2299,2303,2305,2307,2307,2307,2311,2312,2315,2314,2317,2318,2316,2315,2319,2324,2324,2322,2323,2326,2327,2328,2330,2333,2334,2331,2333,2334,2335,2335,2335,2338,2337,2336,2339,2337,2338,2339,2342,2346,2352,2356,2358,2353,2350,2352,2357,2357,2355,2355,2357,2362,2366,2369,2368,2366,2364,2362,2364,2365,2366,2367,2366,2367,2366,2373,2375,2376,2374,2374,2375,2378,2377,2376,2378,2381,2386,2385,2386,2382,2383,2386,2390,2391,2387,2387,2390,0,0,2412,2419,2428,2436,2441,2449,2455,2458,2459,2462,2460,2450,2437,2428,2422,2421,2417,2413,2410,2410,2414,2412,2409,2403,2405,2405,2403,2399,2396,2397,2398,2401,2403,2405,2406,2405,2403,2405,2408,2412,2412,2415,2419,2426,2428,2436,2449,2477,2498,2501,0,0,0,0,0,0,0,0,0,0,0,0,0,0,0,0,0,0,0,0,0,1444,0,0,0,0,0,0,0,0,0,1428,0,0,0,0,0,0,0,0,0,0,0,0,0,0,0,1501,0,0,0,0,1377,0,2443,2453,2485,0,0,0,0,0,0,0,0,0,0,0,2373,2326,0,0,0,0,0,0,0,0,0,0,0,0,0,0,0,0,0,0,0,2199,2207,2209,2205,2200,2196,2193,2188,2170,0,0,2020,2000,1989,0,0,0,0,0,0,0,0,0,0,0,0,0,0,0,0,0,0,0,0,0,0,0,0,0
0,0,0,0,0,0,0,0,0,1406,1412,1411,1411,1411,1438,1458,1456,1459,1461,1474,1487,1489,1511,1513,1522,1523,1552,1562,1566,1572,1588,1597,1601,1612,1626,1633,1639,1647,1658,1661,1668,1672,1681,1685,0,0,0,0,0,0,0,1396,1395,1402,1421,0,1686,1700,1728,1734,1737,1735,1730,1729,1735,1743,1749,1750,1752,1751,1753,1754,0,0,0,0,0,0,0,1440,1444,1441,1440,1441,1444,1447,1449,0,0,2260,2268,2276,2281,2287,2290,2292,2297,2301,2306,2308,2313,2316,2320,2325,2330,2333,2336,2340,2343,2344,2347,2348,2352,2354,2357,2357,2358,2359,2359,2359,2360,2362,2364,2365,2366,2365,2364,2365,2365,2364,2363,2361,2360,2353,2350,2348,2354,2365,2378,2382,2337,2286,2275,2277,2315,0,0,0,2419,2424,2431,2444,0,2413,2408,2412,2406,2396,2391,2384,2384,2380,2377,2373,2371,2363,2359,2355,2354,2351,2351,2350,2351,2350,2352,2352,2352,2353,2353,2351,2348,2346,2346,2346,2346,2343,2336,2330,2327,2329,2326,2321,2316,2313,2310,2307,2302,2298,2292,2288,2283,2282,2280,2277,2274,2277,2275,2269,2266,2266,2267,2266,2266,2268,2268,2267,2267,2266,2267,2267,2268,2268,2268,2266,2267,2268,2272,2272,2273,2273,2275,2277,2279,2279,2283,2285,2287,2289,2294,2299,2297,2297,2298,2297,2300,2300,2304,2305,2308,2308,2308,2309,2310,2311,2311,2314,2317,2315,2313,2315,2320,2320,2320,2322,2326,2327,2328,2331,2333,2332,2329,2329,2332,2331,2332,2332,2337,2336,2336,2336,2336,2337,2338,2340,2343,2348,2351,2353,2348,2346,2348,2356,2358,2357,2354,2356,2359,2366,2366,2366,2364,2367,2366,2365,2365,2366,2368,2367,2366,2363,2368,2372,2375,2373,2374,2375,2379,2379,2379,2379,2380,2384,2384,2386,2382,2382,2386,2390,2391,2390,2391,2396,2396,2399,2404,2412,2423,2430,2439,2445,2452,2454,2456,2454,2451,2441,2430,2425,2421,2419,2413,2409,2406,2407,2409,2408,2407,2406,2406,2404,2399,2396,2394,2395,2395,2397,2400,2401,2402,2402,2400,2405,2409,2412,2412,2415,2419,2422,2426,2437,2447,2464,2484,2503,2503,0,0,0,0,0,0,0,0,0,0,0,0,0,0,0,0,0,0,0,0,0,0,0,0,0,0,0,0,0,0,0,0,0,0,0,0,0,0,0,0,0,0,0,0,0,0,1411,1407,0,0,0,0,0,2454,2461,2493,0,0,0,0,0,0,0,0,0,0,2394,2363,2350,0,0,0,0,0,0,0,0,0,0,0,0,0,0,0,0,0,0,0,2200,2208,2210,2206,2202,2197,2191,2186,2153,0,0,2029,2005,1993,1978,0,0,0,0,0,0,0,0,0,0,0,0,0,0,0,0,0,0,0,0,0,0,0,0
0,1057,0,0,0,0,0,0,0,1407,1413,1417,1421,1421,1435,1445,1457,1454,1463,1477,1490,1484,1491,1520,1525,1528,1539,1554,1562,1572,1581,1590,1601,1617,1630,1633,1635,1642,1654,1658,1664,1671,1681,1685,0,0,0,0,0,0,1398,1395,1396,1403,1421,0,1698,1710,1729,1735,1742,1739,1740,1734,1740,1745,1748,1750,1751,1753,1754,1756,1762,0,0,0,0,0,0,1438,1442,1442,1441,1441,1444,1446,1449,0,0,2264,2271,2278,2283,2287,2291,2293,2299,2302,2306,2308,2315,2318,2321,2324,2329,2332,2334,2338,2342,2344,2346,2348,2351,2354,2357,2358,2360,2359,2358,2358,2360,2363,2365,2367,2368,2367,2365,2366,2367,2366,2365,2360,2358,2353,2351,2351,2356,2370,2381,2381,2338,2288,2278,2280,0,0,0,0,0,0,0,0,0,0,0,2412,2406,2396,2390,2386,2384,2381,2379,2373,2371,2367,2365,2360,2357,2355,2357,2354,2354,2351,2354,2354,2355,2356,2358,2355,2352,2348,2346,2345,2345,2344,2338,2333,2330,2333,2329,2324,2317,2315,2310,2306,2302,2299,2295,2291,2288,2285,2283,2279,2275,2275,2273,2270,2268,2267,2267,2267,2268,2269,2268,2268,2266,2266,2266,2268,2269,2267,2266,2264,2266,2267,2269,2272,2274,2277,2277,2278,2277,2277,2280,2283,2286,2291,2294,2298,2296,2297,2297,2297,2298,2299,2303,2305,2306,2306,2306,2306,2306,2309,2311,2316,2318,2317,2316,2315,2321,2320,2322,2323,2324,2323,2323,2327,2328,2329,2328,2328,2327,2326,2329,2331,2336,2334,2335,2334,2334,2335,2336,2338,2342,2344,2346,2346,2345,2344,2346,2351,2355,2356,2355,2355,2357,2363,2364,2362,2360,2364,2365,2363,2364,2364,2366,2364,2364,2364,2368,2370,2371,2371,2374,2378,2380,2378,2377,2378,2381,2384,2385,2387,2383,2382,2385,2388,2388,2387,2389,2395,2397,2400,2402,2405,2413,2424,2437,2445,2450,2452,2453,2449,2442,2431,2424,2419,2416,2414,2410,2409,2409,2407,2406,2402,2403,2404,2403,2400,2396,2395,2395,2395,2397,2397,2401,2400,2403,2402,2403,2405,2409,2412,2413,2416,2419,2421,2427,2437,2445,2452,2465,2492,2516,2509,0,0,0,0,0,0,0,0,0,0,0,0,0,0,0,0,0,0,0,0,0,0,0,0,0,0,0,0,0,1455,0,0,0,0,0,0,0,0,0,0,0,0,0,0,0,1432,1328,1407,0,0,1351,0,2461,2470,2493,0,0,0,0,0,0,0,0,0,0,2392,2362,2398,2421,0,0,0,0,0,0,0,0,0,0,0,0,0,0,0,0,0,0,2201,2204,2212,2207,2204,2196,2191,2181,2132,0,0,2027,2001,1992,1977,0,0,0,0,0,0,0,0,0,0,0,0,0,0,0,0,0,0,0,0,0,0,0,0
0,0,0,0,0,0,0,0,0,1400,1406,1416,1427,1435,1430,1449,1465,1468,1468,1471,1471,1471,1494,1512,1530,1532,1538,1548,1563,1572,1574,1580,1591,1613,1627,1623,1627,1634,1646,1649,1667,1677,1695,1696,0,0,0,0,0,0,1393,1395,1396,1403,1421,0,1702,1711,1727,1733,1741,1741,1743,1739,1743,1745,1749,1751,1753,1753,1752,1755,0,0,0,0,0,0,0,1440,1442,1443,1444,1443,1444,1446,1450,0,0,2272,2280,2283,2287,2288,2292,2295,2299,2302,2306,2309,2316,2320,2322,2325,2329,2332,2334,2336,2340,2342,2345,2347,2351,2354,2356,2357,2358,2358,2360,2361,2362,2363,2364,2365,2366,2365,2364,2364,2365,2365,2363,2357,2353,2352,2356,2360,2367,2376,2384,2379,2336,2288,2278,2283,0,0,0,0,0,0,0,0,0,2438,2447,2438,2426,2406,2396,2389,2383,2381,2381,2378,2375,2370,2366,2361,2357,2355,2357,2355,2353,2352,2355,2356,2358,2357,2357,2356,2354,2350,2346,2344,2345,2344,2343,2337,2334,2334,2331,2328,2320,2317,2309,2305,2301,2300,2295,2292,2291,2289,2285,2280,2277,2277,2275,2274,2271,2273,2270,2270,2268,2269,2267,2267,2266,2267,2265,2268,2268,2266,2264,2264,2267,2269,2270,2273,2275,2277,2278,2279,2280,2280,2282,2283,2287,2289,2293,2295,2297,2296,2297,2296,2298,2300,2303,2303,2303,2305,2306,2305,2304,2307,2308,2312,2317,2319,2319,2317,2320,2319,2321,2323,2320,2322,2321,2325,2322,2325,2327,2332,2331,2332,2333,2332,2334,2332,2335,2335,2335,2335,2335,2335,2338,2340,2342,2343,2343,2345,2346,2349,2352,2357,2360,2360,2360,2363,2363,2360,2359,2361,2364,2362,2365,2365,2367,2364,2365,2364,2366,2366,2367,2368,2373,2375,2375,2372,2372,2376,2379,2382,2383,2385,2385,2385,2387,2388,2388,2389,2389,2392,2393,2395,2399,2403,2409,2414,2429,2441,2447,2448,2445,2440,2432,2423,2420,2419,2418,2414,2410,2408,2410,2405,2404,2398,2402,2404,2404,2400,2395,2396,2399,2396,2398,2396,2399,2398,2402,2402,2403,2404,2408,2410,2412,2413,2418,2419,2426,2434,2443,2448,2459,2481,2511,2523,2502,0,0,0,0,0,0,0,0,0,0,0,0,0,0,0,0,1423,0,0,0,0,0,0,0,0,0,0,0,1488,0,0,0,0,0,0,0,0,0,0,0,0,0,0,0,0,1301,0,1449,1397,0,0,0,2479,2513,0,0,0,0,0,0,0,0,0,2369,2370,0,0,2372,2419,0,0,0,0,0,0,0,0,0,0,0,0,0,0,0,0,0,2186,2202,2204,2203,2201,2195,2190,2179,2128,0,0,2007,2000,1989,1977,0,0,0,0,0,0,0,0,0,0,0,0,0,0,0,0,0,0,0,0,0,0,0,0
0,0,0,0,0,0,0,0,1400,1392,1400,1415,1431,1435,1436,1456,1471,1480,1473,1467,1473,1494,1492,1517,1529,1532,1536,1544,1561,1571,1573,1579,1587,1609,1613,1617,1622,1629,1639,1652,1674,1683,1691,1692,0,0,0,0,0,0,1391,1392,1393,1399,1418,0,1704,1717,1730,1735,1739,1739,1739,1740,1744,1746,1747,1749,1750,1753,1752,1755,0,0,0,0,0,0,0,1444,1444,1445,1447,1445,1446,1448,1451,0,0,2276,2280,2285,2286,2288,2292,2296,2301,2304,2307,2312,2319,2323,2324,2328,2331,2335,2336,2337,2342,2344,2346,2348,2350,2354,2355,2357,2358,2360,2362,2362,2362,2362,2364,2363,2364,2362,2363,2363,2364,2367,2364,2358,2353,2355,2359,2364,2370,2379,2388,2383,2338,2291,2280,2284,0,0,0,0,0,0,0,0,2425,0,2433,2443,2424,2406,2392,2386,2379,2378,2376,2375,2373,2371,2368,2363,2360,2357,2358,2356,2355,2355,2357,2358,2359,2358,2359,2358,2355,2349,2344,2343,2345,2345,2344,2338,2334,2332,2330,2328,2323,2319,2309,2305,2301,2303,2297,2297,2293,2292,2287,2284,2280,2280,2278,2279,2278,2281,2276,2273,2269,2271,2269,2269,2266,2267,2266,2269,2269,2267,2265,2265,2268,2270,2273,2277,2276,2277,2276,2278,2279,2280,2283,2284,2289,2291,2293,2293,2295,2296,2298,2297,2298,2299,2302,2302,2299,2301,2303,2307,2309,2310,2308,2308,2312,2317,2320,2320,2321,2321,2322,2322,2319,2321,2320,2323,2323,2326,2328,2332,2331,2333,2334,2333,2333,2331,2332,2335,2333,2334,2334,2337,2338,2337,2337,2338,2341,2343,2345,2346,2349,2354,2358,2359,2359,2360,2361,2357,2358,2358,2362,2362,2366,2366,2368,2364,2364,2364,2368,2369,2366,2367,2369,2374,2371,2368,2369,2374,2378,2381,2382,2385,2388,2389,2388,2388,2388,2389,2389,2391,2394,2396,2398,2401,2404,2408,2415,2425,2433,2436,2435,2429,2423,2416,2418,2417,2419,2414,2411,2409,2409,2405,2403,2397,2400,2400,2401,2396,2395,2395,2400,2398,2399,2397,2400,2401,2404,2403,2404,2404,2407,2407,2410,2412,2416,2420,2426,2431,2435,2439,2452,2467,2495,2518,2525,0,0,0,0,0,0,0,0,0,0,0,0,0,0,0,0,0,0,0,0,0,0,0,0,0,0,0,0,0,0,0,0,0,0,0,0,0,0,0,0,0,0,0,0,0,1394,0,0,0,1356,0,2467,2480,2501,0,0,0,0,0,0,0,0,0,2340,2368,2395,0,0,2376,2362,0,0,0,0,0,0,0,0,0,0,0,0,0,0,0,0,0,2201,2202,2199,2199,2196,2194,2184,0,0,0,2019,2001,1992,1975,0,0,0,0,0,0,0,0,0,0,0,0,0,0,0,0,0,0,0,0,0,0,0,0
0,0,0,0,0,0,0,0,1384,1392,1399,1410,1421,1427,1438,1449,1473,1479,1476,1476,1487,1502,1511,1523,1532,1537,1545,1553,1561,1572,1574,1586,1596,1609,1614,1613,1620,1627,1638,1650,1671,1682,1691,1693,0,0,0,0,0,0,1406,1390,1389,1397,1418,0,1694,1716,1729,1736,1736,1734,1734,1740,1745,1747,1748,1751,1752,1754,1753,1754,0,0,0,0,0,0,0,1448,1444,1443,1445,1445,1447,1448,1452,0,0,2278,2282,2284,2283,2286,2292,2298,2302,2305,2308,2313,2318,2323,2326,2329,2333,2336,2338,2339,2342,2344,2346,2348,2350,2352,2355,2356,2358,2360,2363,2362,2361,2361,2364,2363,2363,2363,2364,2365,2364,2366,2362,2356,2352,2353,2358,2365,2373,2382,2388,2384,2343,2290,2278,2283,0,3565,0,0,0,0,0,0,0,0,0,0,2415,2400,2393,2390,2385,2383,2380,2379,2376,2370,2368,2363,2361,2357,2355,2355,2355,2357,2357,2357,2356,2356,2355,2356,2354,2351,2348,2345,2346,2343,2342,2336,2334,2331,2331,2328,2325,2319,2312,2309,2303,2303,2295,2296,2291,2291,2286,2284,2280,2281,2280,2281,2280,2282,2279,2275,2272,2271,2271,2269,2267,2265,2266,2269,2271,2270,2268,2267,2268,2271,2276,2278,2278,2277,2275,2276,2278,2282,2286,2286,2292,2293,2295,2293,2297,2298,2300,2299,2299,2299,2302,2302,2302,2301,2305,2310,2313,2312,2308,2307,2311,2316,2319,2319,2320,2319,2319,2319,2318,2320,2321,2324,2324,2324,2326,2328,2333,2334,2334,2333,2333,2331,2330,2332,2332,2333,2331,2333,2333,2335,2337,2338,2338,2341,2344,2349,2350,2353,2355,2358,2359,2359,2359,2358,2359,2360,2361,2362,2365,2364,2365,2363,2364,2363,2366,2368,2368,2368,2370,2371,2371,2368,2370,2372,2375,2375,2377,2383,2387,2389,2388,2388,2389,2392,2392,2392,2391,2391,2393,2396,2403,2405,2406,2410,2417,2425,2422,2417,2416,2415,2417,2415,2413,2409,2406,2407,2407,2405,2405,2401,2402,2399,2400,2395,2395,2395,2399,2398,2396,2396,2397,2398,2400,2401,2405,2406,2409,2410,2413,2416,2418,2421,2424,2428,2433,2436,2448,2456,2476,2500,2525,2520,0,0,0,0,0,0,0,0,0,0,0,0,0,0,0,0,0,0,0,0,0,0,0,0,0,0,0,0,0,0,0,0,0,0,0,0,0,0,0,0,0,0,0,1456,1450,0,0,0,0,0,2453,2463,2482,0,0,0,0,0,0,0,0,0,2355,2342,2313,2381,0,2378,2356,2348,2326,0,2259,0,0,0,0,0,0,0,0,0,0,2185,0,2200,2203,2202,2200,2201,2200,2197,2186,2151,0,0,2006,2006,1996,1981,0,0,0,0,0,0,0,0,0,0,0,0,0,0,0,0,0,0,0,0,0,0,0,0
0,0,0,0,0,0,0,0,0,1384,1398,1407,1413,1410,1421,1441,1452,1478,1477,1470,1474,1494,1507,1520,1526,1545,1556,1566,1567,1573,1582,1598,1602,1616,1617,1623,1624,1639,1645,1655,1670,1673,1689,1702,0,0,0,0,0,0,1396,1385,1385,1394,1417,0,1692,1716,1738,1743,1739,1736,1735,1742,1747,1750,1749,1751,1752,1755,1755,1755,0,0,0,0,0,0,0,1442,1443,1442,1445,1443,1445,1447,1452,0,0,2277,2276,2279,2281,2286,2293,2299,2304,2305,2308,2313,2319,2323,2326,2329,2334,2336,2339,2342,2345,2346,2347,2348,2350,2353,2355,2357,2360,2361,2362,2360,2360,2362,2365,2366,2365,2365,2365,2366,2364,2366,2364,2359,2353,2353,2354,2360,2368,2380,2389,2392,2352,2293,2278,2286,0,0,0,0,0,0,0,0,0,0,0,2446,2423,2396,2394,2393,2390,2387,2381,2378,2377,2374,2371,2365,2360,2358,2355,2356,2356,2358,2358,2357,2356,2357,2359,2358,2355,2351,2348,2345,2345,2343,2342,2337,2336,2333,2331,2327,2324,2320,2314,2308,2302,2301,2297,2297,2291,2290,2285,2283,2281,2281,2281,2282,2282,2280,2279,2276,2274,2272,2271,2270,2267,2265,2264,2267,2271,2271,2272,2271,2273,2276,2278,2278,2276,2278,2276,2276,2277,2281,2285,2286,2291,2292,2294,2294,2296,2299,2300,2301,2299,2300,2302,2302,2303,2300,2305,2312,2315,2313,2311,2312,2315,2316,2316,2316,2318,2318,2320,2318,2319,2320,2323,2323,2324,2324,2324,2324,2328,2329,2328,2330,2332,2331,2329,2330,2329,2329,2330,2333,2332,2333,2333,2335,2336,2337,2340,2346,2349,2351,2351,2353,2353,2353,2353,2355,2357,2359,2359,2359,2361,2362,2365,2364,2362,2361,2363,2366,2368,2369,2371,2371,2371,2371,2374,2375,2377,2374,2377,2382,2387,2387,2384,2384,2385,2388,2389,2389,2389,2392,2393,2393,2397,2401,2401,2400,2404,2411,2412,2409,2409,2410,2411,2407,2402,2401,2401,2404,2405,2405,2405,2402,2402,2399,2400,2395,2396,2394,2395,2397,2397,2397,2396,2396,2400,2401,2405,2406,2407,2411,2413,2419,2419,2425,2426,2429,2431,2436,2445,2448,2462,2487,2521,2531,0,0,0,0,0,0,0,0,0,0,0,0,0,0,0,0,0,0,0,0,0,0,0,0,0,0,0,0,0,0,0,0,0,0,0,0,0,0,0,0,0,0,0,1422,1448,0,0,0,0,2454,2445,2456,2456,0,0,0,0,0,0,0,0,0,0,2376,2380,2379,2381,2360,2393,2360,0,0,0,0,0,0,0,0,0,0,0,2225,2195,2197,0,2200,2207,2205,2201,2202,2199,2195,2182,2148,0,0,2000,2003,1992,1969,0,0,0,0,0,0,0,0,0,0,0,0,0,0,0,0,0,0,0,0,0,0,0,0
0,0,0,0,0,0,0,0,1335,1373,1394,1399,1404,1401,1415,1428,1447,1475,1480,1467,1459,1486,1504,1511,1528,1541,1566,1575,1567,1568,1587,1598,1604,1609,1618,1617,1626,1637,1655,1660,1665,1677,1692,1702,1717,0,0,0,0,0,1411,1389,1390,1398,1420,0,1692,1716,1735,1739,1739,1740,1739,1744,1748,1750,1751,1752,1754,1755,1757,1757,0,0,0,0,0,0,0,1436,1442,1443,1444,1442,1444,1446,1451,0,0,2276,2276,2278,2281,2286,2293,2298,2303,2302,2306,2311,2318,2322,2325,2328,2333,2335,2339,2341,2343,2345,2348,2349,2351,2352,2356,2357,2361,2360,2360,2359,2361,2363,2367,2367,2366,2365,2366,2365,2364,2363,2362,2357,2354,2353,2355,2362,2369,2380,2389,2392,2352,2289,2276,2284,0,0,0,0,0,0,0,0,0,0,0,2427,2405,2399,2399,2398,2399,2395,2388,2384,2381,2378,2373,2364,2358,2356,2354,2356,2356,2359,2359,2359,2360,2360,2359,2357,2356,2356,2351,2349,2347,2344,2341,2337,2339,2336,2334,2328,2324,2319,2316,2308,2304,2301,2301,2299,2296,2291,2285,2282,2282,2283,2282,2281,2279,2275,2275,2274,2275,2271,2271,2272,2271,2267,2265,2267,2271,2273,2274,2273,2273,2277,2279,2278,2276,2278,2280,2279,2279,2281,2286,2287,2292,2292,2294,2294,2298,2300,2299,2299,2301,2303,2304,2303,2303,2301,2305,2307,2311,2311,2312,2314,2316,2318,2317,2315,2315,2316,2317,2315,2315,2318,2321,2321,2320,2321,2323,2324,2327,2325,2323,2323,2325,2326,2325,2326,2326,2328,2329,2330,2330,2332,2335,2337,2336,2337,2340,2345,2349,2350,2350,2351,2352,2352,2353,2357,2359,2360,2356,2356,2356,2360,2362,2363,2362,2363,2364,2366,2367,2369,2370,2368,2368,2370,2373,2375,2376,2373,2375,2378,2385,2384,2382,2381,2382,2387,2387,2388,2387,2391,2393,2394,2396,2401,2403,2404,2403,2407,2408,2407,2407,2407,2406,2401,2395,2394,2396,2400,2402,2401,2401,2401,2403,2400,2399,2396,2395,2393,2392,2395,2396,2397,2395,2395,2397,2399,2401,2403,2406,2413,2416,2418,2418,2424,2425,2429,2432,2439,2444,2447,2455,2475,2511,2524,0,0,0,0,0,0,0,0,0,0,0,0,0,0,0,0,0,0,0,0,0,0,0,0,0,0,0,0,0,0,0,0,0,0,0,0,0,0,0,0,0,0,0,0,0,0,0,0,0,2476,2453,2457,0,0,0,0,0,0,0,0,0,0,0,2338,2350,2371,2374,2330,2344,0,0,0,0,0,0,0,0,0,0,0,0,0,2184,2192,0,2219,2208,2203,2201,2203,2200,2192,2176,2139,0,0,2006,2000,1992,1971,0,0,0,0,0,0,0,0,0,0,0,0,0,0,0,0,0,0,0,0,0,0,0,0
0,0,0,0,0,0,0,0,0,1367,1386,1396,1401,1411,1424,1436,1460,1478,1478,1477,1472,1492,1500,1514,1511,1542,1550,1560,1556,1558,1565,1589,1600,1609,1614,1627,1630,1643,1655,1658,1667,1678,1694,1693,0,0,0,0,0,0,1403,1394,1392,1402,1426,0,1697,1724,1740,1741,1744,1745,1745,1744,1749,1752,1754,1752,1753,1754,1757,1757,0,0,0,0,0,0,0,1439,1445,1445,1445,1442,1444,1447,1451,0,0,2276,2275,2278,2281,2286,2291,2296,2302,2302,2305,2311,2317,2322,2325,2328,2332,2335,2339,2341,2343,2345,2348,2350,2352,2353,2356,2358,2360,2359,2358,2359,2362,2365,2367,2367,2364,2362,2361,2362,2364,2364,2360,2356,2354,2358,2361,2367,2371,2378,2386,2392,2347,2289,2278,2286,0,0,0,0,0,0,0,0,0,0,0,0,2411,2420,2410,2398,2395,2391,2385,2382,2379,2378,2371,2364,2357,2356,2356,2357,2358,2361,2362,2363,2366,2364,2363,2361,2361,2358,2353,2350,2349,2347,2342,2338,2338,2337,2335,2330,2327,2326,2323,2315,2310,2306,2307,2304,2302,2296,2288,2285,2284,2285,2284,2284,2281,2277,2277,2276,2276,2273,2271,2273,2271,2270,2267,2270,2274,2278,2278,2276,2275,2278,2280,2280,2277,2279,2281,2281,2282,2283,2288,2287,2289,2290,2292,2295,2299,2300,2297,2298,2301,2305,2304,2302,2300,2299,2303,2306,2308,2309,2311,2314,2316,2318,2318,2315,2316,2316,2317,2315,2316,2318,2319,2320,2320,2321,2322,2324,2325,2323,2323,2322,2322,2323,2325,2325,2323,2325,2330,2333,2331,2330,2333,2336,2336,2336,2337,2339,2342,2345,2346,2346,2346,2348,2351,2356,2359,2360,2355,2353,2352,2359,2363,2364,2362,2363,2364,2364,2365,2366,2366,2364,2365,2369,2370,2372,2374,2373,2373,2375,2382,2384,2382,2380,2381,2386,2387,2389,2387,2391,2395,2397,2398,2400,2404,2403,2403,2404,2407,2406,2407,2404,2402,2398,2395,2395,2396,2399,2400,2397,2396,2397,2399,2399,2398,2397,2394,2392,2391,2395,2394,2396,2394,2396,2397,2398,2399,2402,2405,2410,2411,2414,2416,2422,2425,2430,2431,2435,2436,2444,2450,2471,2502,2524,2526,0,0,0,0,0,0,0,0,0,0,0,0,0,0,0,0,0,0,0,0,0,0,0,0,0,0,0,0,0,0,0,0,0,0,0,0,0,0,0,0,0,1490,0,0,0,0,0,0,0,2454,2455,2478,0,0,0,2483,0,0,0,0,2396,0,0,2396,2389,2374,2344,2299,0,0,0,0,0,0,0,0,0,0,0,0,0,0,0,2214,2224,2212,2206,2201,2200,2194,2187,2172,2141,0,0,1999,1998,1990,1975,0,0,0,0,0,0,0,0,0,0,0,0,0,0,0,0,0,0,0,0,0,0,0,0
0,0,0,0,0,0,0,0,0,1379,1392,1397,1401,1416,1423,1443,1450,1461,1471,1481,1482,1494,1517,1516,1529,1532,1541,1545,1552,1553,1569,1577,1597,1608,1616,1617,1629,1639,1653,1660,1674,1687,1707,1691,0,0,0,0,0,0,0,1396,1393,1404,1432,0,1689,1715,1736,1737,1739,1743,1742,1743,1747,1751,1753,1753,1753,1755,1758,1758,0,0,0,0,0,0,0,1444,1444,1443,1446,1445,1447,1447,1450,0,0,2274,2278,2281,2283,2287,2292,2292,2297,2299,2307,2311,2317,2321,2324,2327,2331,2334,2337,2340,2341,2343,2346,2350,2353,2354,2356,2358,2360,2360,2358,2360,2363,2366,2367,2367,2365,2363,2362,2363,2365,2362,2358,2354,2355,2361,2366,2371,2373,2377,2387,2392,2352,2291,2278,2287,0,0,0,0,0,0,0,0,0,0,0,2422,2433,2438,2424,2399,2394,2388,2386,2382,2380,2378,2373,2364,2357,2356,2357,2360,2362,2364,2365,2365,2369,2366,2363,2359,2359,2359,2356,2353,2350,2347,2344,2339,2339,2338,2337,2333,2331,2329,2326,2321,2315,2310,2308,2307,2305,2299,2290,2288,2287,2288,2285,2285,2284,2279,2279,2279,2279,2276,2274,2275,2273,2273,2271,2273,2274,2279,2279,2278,2275,2277,2279,2282,2281,2283,2285,2285,2285,2285,2289,2289,2292,2293,2294,2297,2300,2302,2299,2299,2302,2304,2304,2305,2303,2303,2304,2306,2308,2309,2311,2310,2312,2316,2319,2318,2316,2317,2318,2319,2318,2320,2320,2320,2319,2320,2322,2323,2323,2320,2322,2321,2322,2320,2321,2322,2320,2324,2327,2330,2329,2328,2332,2335,2337,2339,2339,2341,2341,2342,2343,2345,2349,2352,2354,2355,2356,2358,2355,2354,2352,2358,2360,2361,2362,2363,2364,2364,2364,2365,2362,2363,2364,2368,2369,2372,2375,2375,2373,2373,2378,2382,2381,2381,2383,2387,2390,2392,2393,2393,2398,2398,2401,2401,2404,2404,2404,2404,2405,2405,2407,2405,2403,2399,2396,2395,2395,2398,2397,2394,2391,2393,2395,2395,2395,2393,2393,2391,2391,2393,2394,2396,2393,2397,2397,2399,2400,2403,2408,2411,2410,2411,2414,2419,2423,2428,2427,2427,2431,2442,2450,2462,2491,2519,2532,0,0,0,0,0,0,0,0,0,0,0,0,0,0,1394,0,0,0,0,0,0,0,0,0,0,0,0,0,0,0,0,0,0,0,0,0,0,0,0,0,0,0,0,0,0,0,0,0,0,2447,2450,0,0,0,0,0,2437,2405,0,0,0,0,0,2391,2389,2358,2308,2306,0,0,0,0,0,0,0,0,0,0,0,0,0,0,0,2199,2212,2210,2209,2205,2201,2193,2183,2172,2137,0,0,2000,1995,1991,1982,0,0,0,0,0,0,0,0,0,0,0,0,0,0,0,0,0,0,0,0,0,0,0,0
0,0,0,0,0,0,0,0,0,1386,1401,1408,1406,1414,1425,1434,1442,1456,1461,1487,1486,1482,1507,1526,1531,1534,1537,1545,1555,1574,1577,1591,1598,1610,1616,1623,1627,1642,1655,1662,1679,1689,1704,1707,0,0,0,0,0,0,1410,1395,1391,1407,1437,0,1687,1711,1730,1734,1736,1738,1738,1741,1748,1753,1752,1751,1751,1757,1758,1756,0,0,0,1943,0,0,0,1448,1447,1444,1448,1449,1451,1451,1451,0,0,2277,2284,2285,2287,2288,2294,2294,2298,2301,2307,2309,2314,2319,2324,2329,2331,2334,2336,2339,2341,2343,2346,2350,2352,2354,2355,2358,2360,2361,2360,2360,2363,2364,2363,2366,2367,2367,2363,2362,2361,2360,2355,2354,2356,2366,2370,2369,2369,2375,2390,2398,2356,2292,2281,2288,0,0,0,0,0,0,0,0,0,0,0,0,0,0,0,2397,2387,2385,2387,2382,2379,2373,2369,2362,2357,2356,2355,2358,2362,2363,2363,2365,2370,2369,2366,2363,2360,2357,2357,2357,2355,2350,2344,2341,2340,2340,2337,2334,2331,2331,2327,2324,2318,2313,2309,2310,2306,2300,2292,2290,2288,2288,2288,2290,2288,2286,2286,2287,2283,2279,2276,2276,2273,2274,2271,2273,2274,2278,2277,2278,2280,2282,2283,2284,2285,2286,2287,2287,2285,2285,2288,2288,2290,2291,2294,2298,2300,2301,2300,2301,2303,2305,2304,2305,2303,2303,2304,2308,2313,2311,2311,2308,2311,2315,2317,2317,2315,2319,2319,2321,2321,2323,2322,2320,2319,2319,2320,2320,2320,2319,2322,2323,2323,2321,2322,2322,2319,2321,2326,2331,2330,2328,2330,2335,2337,2338,2337,2340,2341,2340,2340,2341,2347,2350,2352,2353,2353,2354,2352,2353,2354,2356,2359,2360,2362,2362,2362,2364,2364,2365,2363,2365,2365,2367,2368,2371,2374,2373,2372,2370,2374,2376,2379,2381,2384,2387,2390,2392,2395,2394,2396,2396,2400,2400,2403,2402,2402,2400,2402,2402,2404,2402,2400,2397,2395,2398,2397,2398,2396,2392,2390,2390,2391,2392,2393,2392,2394,2390,2391,2391,2392,2394,2394,2396,2398,2400,2402,2405,2409,2410,2408,2409,2411,2416,2422,2427,2426,2424,2428,2437,2447,2458,2478,2509,2526,0,0,0,0,0,0,0,0,0,0,0,0,0,0,0,0,0,0,0,0,0,0,0,0,0,0,0,0,0,0,0,1477,0,0,0,0,0,0,0,0,0,0,0,0,0,0,0,0,0,2436,2447,2464,0,0,0,0,0,0,0,0,0,0,0,2368,2364,2348,2335,0,0,0,0,2271,2253,0,0,0,0,0,0,0,0,0,0,2191,2210,2209,2211,2205,2200,2190,2181,2172,2133,0,0,2001,1997,1988,0,0,0,0,0,0,0,0,0,0,0,0,0,0,0,0,0,0,0,0,0,0,0,0,0
0,0,0,0,0,0,0,0,0,1392,1404,1408,1411,1419,1422,1435,1445,1459,1469,1488,1498,1497,1515,1526,1532,1529,1542,1545,1561,1582,1597,1594,1599,1613,1622,1624,1629,1637,1650,1663,1679,1685,1698,1701,0,0,0,0,0,0,1410,1395,1393,1406,1433,0,1687,1703,1723,1732,1731,1734,1732,1738,1744,1750,1751,1752,1751,1756,1756,1758,0,0,0,1962,1905,0,0,1453,1451,1449,1449,1448,1450,1450,1452,0,0,2274,2285,2287,2288,2288,2295,2294,2297,2301,2308,2311,2315,2319,2324,2327,2329,2332,2336,2339,2342,2344,2347,2349,2351,2353,2353,2356,2359,2362,2363,2362,2363,2364,2364,2365,2366,2365,2363,2362,2361,2359,2356,2355,2359,2365,2368,2365,2367,2375,2391,2397,2352,2289,2280,2290,0,0,0,0,0,0,0,0,0,0,0,0,0,0,2426,2397,2385,2387,2387,2382,2377,2372,2364,2361,2356,2357,2354,2356,2360,2363,2365,2366,2370,2369,2366,2362,2358,2358,2360,2362,2358,2352,2347,2345,2343,2341,2338,2335,2332,2327,2323,2319,2316,2314,2308,2309,2306,2303,2299,2296,2295,2291,2291,2290,2289,2289,2288,2288,2284,2282,2281,2282,2279,2278,2275,2275,2275,2274,2276,2278,2282,2284,2283,2283,2284,2288,2290,2289,2286,2286,2287,2289,2291,2293,2296,2297,2301,2302,2305,2304,2304,2304,2304,2306,2307,2305,2305,2307,2313,2311,2311,2308,2310,2313,2314,2316,2315,2321,2321,2323,2320,2322,2321,2321,2321,2321,2320,2318,2317,2317,2319,2321,2320,2320,2321,2321,2320,2320,2325,2329,2331,2328,2327,2329,2331,2335,2336,2340,2340,2339,2339,2343,2348,2351,2350,2350,2351,2353,2352,2352,2355,2355,2358,2358,2359,2359,2359,2364,2363,2365,2364,2366,2367,2367,2367,2370,2373,2373,2373,2373,2374,2375,2377,2380,2381,2383,2387,2392,2397,2395,2396,2397,2400,2399,2400,2399,2400,2398,2400,2401,2402,2401,2399,2397,2393,2396,2397,2398,2395,2391,2390,2390,2390,2388,2389,2389,2393,2389,2390,2389,2392,2394,2393,2395,2398,2399,2403,2404,2409,2410,2410,2409,2410,2415,2420,2424,2424,2424,2429,2434,2441,2448,2463,2489,2518,0,0,0,0,0,0,0,0,0,0,0,0,0,0,0,0,0,1533,0,1462,1453,1501,0,0,0,0,0,0,0,0,0,1504,0,0,0,0,0,0,0,0,0,1435,0,0,0,0,0,0,0,2443,2451,2468,0,0,0,0,0,0,0,0,0,0,2357,2386,2367,2363,2363,2343,0,0,0,0,2263,0,0,0,0,0,0,0,0,0,0,2211,2219,2212,2204,2204,2201,2197,2187,2174,2127,0,0,2008,1997,1986,0,0,0,0,0,0,0,0,0,0,0,0,0,0,0,0,0,0,0,0,0,0,0,0,0
0,0,0,0,0,0,0,0,0,1399,1402,1406,1414,1428,1432,1432,1450,1465,1478,1488,1492,1502,1517,1525,1521,1519,1527,1537,1555,1581,1589,1591,1601,1612,1622,1627,1634,1642,1653,1664,1671,1675,1688,1709,0,0,0,0,0,0,1409,1399,1401,1413,1436,0,1686,1704,1723,1734,1732,1735,1733,1744,1746,1751,1751,1752,1749,1753,1753,1755,0,0,0,1973,0,0,0,1452,1452,1451,1449,1447,1449,1450,1456,0,0,2276,2286,2286,2286,2285,2293,2299,2302,2304,2308,2312,2316,2320,2324,2325,2329,2331,2336,2339,2343,2346,2349,2351,2351,2352,2353,2356,2360,2363,2363,2361,2361,2362,2362,2363,2364,2362,2363,2361,2360,2360,2359,2361,2362,2364,2363,2363,2368,2381,2392,2395,2346,2287,2280,2292,0,0,0,0,0,0,0,0,0,0,0,0,0,0,2446,2403,2387,2386,2386,2382,2378,2372,2361,2357,2354,2355,2354,2354,2357,2361,2365,2370,2374,2374,2372,2368,2363,2360,2362,2363,2359,2354,2348,2346,2343,2341,2337,2335,2332,2328,2325,2321,2319,2315,2311,2311,2309,2309,2306,2302,2299,2297,2295,2294,2292,2294,2291,2287,2285,2283,2285,2285,2284,2282,2279,2278,2277,2274,2276,2280,2285,2285,2285,2284,2284,2289,2291,2291,2288,2289,2289,2291,2292,2295,2297,2298,2302,2303,2303,2303,2303,2304,2303,2303,2305,2304,2308,2310,2313,2310,2310,2312,2314,2315,2315,2315,2316,2320,2321,2322,2320,2320,2318,2320,2321,2323,2322,2320,2318,2318,2319,2321,2321,2324,2324,2323,2321,2321,2326,2331,2332,2330,2327,2328,2328,2332,2334,2338,2339,2339,2339,2339,2344,2346,2348,2350,2351,2354,2352,2353,2353,2355,2357,2358,2357,2360,2360,2364,2362,2363,2362,2363,2363,2365,2365,2368,2369,2371,2372,2372,2373,2373,2376,2378,2381,2383,2387,2392,2394,2394,2393,2396,2399,2400,2400,2401,2402,2401,2399,2399,2398,2399,2397,2395,2392,2393,2394,2394,2394,2390,2390,2389,2388,2387,2387,2389,2391,2390,2390,2389,2390,2391,2395,2395,2398,2397,2402,2402,2405,2409,2412,2412,2412,2414,2421,2424,2428,2427,2431,2435,2441,2449,2455,2478,2509,2534,0,0,0,0,0,0,0,0,0,0,0,0,0,0,0,0,0,0,0,0,0,0,0,0,0,0,0,0,0,0,0,0,0,0,0,0,0,0,0,0,1416,1411,0,0,0,0,0,0,2448,2459,2478,0,0,0,0,0,0,0,0,0,0,0,0,2377,2366,2357,2368,2353,0,0,0,0,0,0,0,0,0,0,0,0,0,0,0,2227,2217,2205,2204,2203,2198,2189,2169,0,0,0,2013,2000,1988,0,0,0,0,0,0,0,0,0,0,0,0,0,0,0,0,0,0,0,0,0,0,0,0,0
0,0,0,0,0,0,0,0,0,1392,1398,1403,1412,1433,1440,1438,1449,1467,1472,1471,1481,1498,1521,1525,1529,1528,1541,1540,1557,1567,1583,1588,1600,1609,1621,1631,1636,1645,1657,1672,1676,1677,1688,1705,1732,0,0,0,0,0,1400,1394,1399,1411,1438,0,1685,1716,1733,1740,1736,1738,1734,1742,1745,1751,1751,1751,1748,1751,1751,1752,0,0,0,0,0,0,0,1452,1450,1449,1449,1446,1446,1446,1452,0,0,2276,2284,2283,2282,2283,2293,2298,2303,2305,2311,2317,2320,2320,2321,2324,2329,2332,2337,2339,2343,2344,2347,2348,2350,2351,2354,2356,2358,2361,2361,2360,2360,2361,2362,2362,2363,2360,2364,2362,2362,2359,2361,2364,2365,2364,2362,2367,2375,2387,2392,2391,2348,2285,2279,2291,0,0,0,0,0,0,0,0,0,0,0,0,0,0,0,0,2379,2377,2378,2380,2380,2374,2362,2359,2356,2357,2358,2359,2361,2363,2368,2372,2375,2376,2376,2371,2369,2365,2364,2361,2356,2354,2350,2349,2344,2340,2337,2335,2335,2332,2328,2321,2317,2315,2313,2313,2311,2311,2308,2305,2304,2300,2295,2292,2293,2294,2291,2286,2285,2286,2288,2288,2286,2286,2285,2283,2281,2277,2282,2285,2289,2287,2285,2285,2284,2289,2289,2291,2291,2295,2295,2296,2296,2298,2299,2300,2302,2302,2301,2301,2302,2304,2306,2308,2310,2308,2312,2312,2311,2309,2313,2316,2318,2316,2315,2315,2317,2320,2321,2321,2319,2318,2316,2319,2319,2322,2322,2323,2324,2324,2322,2323,2324,2325,2325,2324,2323,2325,2327,2329,2328,2329,2327,2326,2326,2331,2335,2337,2336,2336,2341,2343,2348,2349,2349,2347,2347,2352,2352,2355,2354,2357,2357,2358,2356,2358,2356,2359,2357,2359,2357,2359,2362,2366,2366,2369,2370,2372,2369,2371,2373,2376,2376,2378,2383,2386,2391,2394,2396,2397,2395,2396,2396,2396,2396,2397,2398,2400,2397,2400,2400,2403,2398,2395,2390,2390,2391,2391,2391,2390,2389,2389,2385,2385,2385,2388,2387,2389,2388,2388,2388,2391,2395,2395,2399,2398,2402,2402,2405,2408,2413,2414,2416,2416,2422,2423,2426,2425,2427,2432,2435,2442,2447,2468,2499,2520,0,0,0,0,0,0,0,0,0,0,0,0,0,0,0,0,1426,0,0,0,0,0,0,0,0,0,0,0,0,0,0,0,0,0,0,0,0,0,0,0,0,1403,0,0,0,0,1393,0,2469,2469,0,0,0,0,0,0,0,0,0,0,0,0,2443,0,2318,2361,2349,2367,2321,2299,2281,2279,2310,2320,0,2253,0,0,0,0,0,0,0,2220,2204,2200,2202,2204,2202,2188,2166,0,0,0,2013,1998,1992,1972,0,0,0,0,0,0,0,0,0,0,0,0,0,0,0,0,0,0,0,0,0,0,0,0
0,0,0,0,0,0,0,0,1376,1388,1398,1405,1417,1424,1433,1438,1445,1452,1469,1467,1480,1495,1515,1518,1532,1544,1557,1556,1564,1570,1583,1589,1597,1608,1618,1630,1638,1651,1664,1671,1671,1668,1682,1705,1723,1742,0,0,0,0,1415,1393,1395,1405,1438,0,1700,1727,1740,1742,1739,1738,1730,1739,1749,1755,1752,1749,1747,1749,1748,1748,0,0,0,0,0,0,0,0,1445,1446,1447,1447,1446,1448,1451,0,0,2277,2281,2280,2282,2284,2292,2298,2303,2303,2306,2310,2315,2318,2320,2324,2328,2332,2337,2341,2344,2346,2348,2350,2350,2353,2355,2357,2360,2361,2361,2360,2359,2360,2361,2359,2360,2361,2364,2366,2364,2364,2363,2366,2366,2365,2362,2368,2377,2388,2388,2388,2346,2286,2282,2296,2313,0,0,0,0,0,0,0,0,0,0,0,0,0,0,0,2382,2374,2375,2377,2378,2373,2363,2358,2356,2357,2359,2359,2361,2365,2372,2378,2380,2381,2380,2376,2372,2367,2364,2361,2357,2355,2351,2350,2346,2342,2338,2336,2336,2333,2330,2324,2321,2318,2316,2315,2313,2312,2308,2306,2303,2301,2298,2299,2300,2298,2294,2290,2288,2287,2288,2289,2288,2287,2287,2284,2282,2280,2285,2289,2292,2288,2286,2287,2289,2290,2289,2290,2292,2296,2298,2301,2302,2302,2302,2302,2301,2302,2300,2303,2304,2307,2309,2310,2310,2310,2312,2313,2312,2312,2316,2319,2321,2320,2318,2318,2317,2317,2318,2319,2319,2319,2318,2319,2318,2317,2319,2322,2326,2323,2320,2319,2323,2325,2326,2327,2327,2329,2327,2327,2325,2329,2330,2329,2329,2331,2336,2335,2338,2338,2342,2341,2345,2348,2350,2349,2348,2350,2351,2353,2354,2358,2358,2360,2360,2360,2357,2357,2356,2358,2356,2356,2357,2364,2367,2370,2370,2372,2368,2368,2370,2372,2375,2375,2381,2383,2389,2395,2399,2401,2397,2397,2395,2398,2399,2401,2399,2398,2395,2398,2398,2399,2394,2391,2389,2388,2390,2387,2388,2386,2387,2387,2383,2384,2382,2384,2382,2386,2386,2386,2385,2388,2395,2398,2401,2400,2399,2400,2404,2409,2415,2414,2414,2415,2422,2422,2424,2424,2426,2432,2436,2443,2446,2457,2482,2507,2526,0,0,0,0,0,0,0,0,0,0,0,0,0,0,0,0,0,0,0,0,0,0,0,0,0,0,0,0,0,0,0,0,0,0,0,0,0,0,0,0,0,0,0,0,1432,1378,0,0,2472,2464,0,0,0,0,0,0,0,0,0,0,2407,2428,2428,2395,2336,2344,2324,2293,2328,2348,0,0,2311,2306,2257,0,0,0,0,0,0,0,2193,2205,2200,2202,2205,2201,2188,2165,0,0,0,2009,2003,1995,1974,0,0,0,0,0,0,0,0,0,0,0,0,0,0,0,0,0,0,0,0,0,0,0,0
0,0,0,0,0,0,0,0,1367,1385,1397,1405,1412,1419,1429,1443,1445,1450,1474,1479,1491,1503,1515,1522,1533,1544,1562,1569,1583,1584,1598,1597,1603,1617,1626,1636,1646,1657,1662,1664,1664,1672,1682,1706,1727,1747,1751,0,0,0,1420,1394,1388,1393,1423,0,1702,1736,1748,1749,1742,1734,1729,1735,1748,1751,1749,1745,1746,1747,1749,1751,0,0,0,0,0,0,0,1448,1446,1446,1448,1450,1451,1450,1446,0,0,2270,2276,2277,2281,2284,2294,2301,2307,2306,2308,2309,2314,2316,2318,2324,2330,2333,2337,2341,2345,2347,2349,2350,2350,2351,2353,2355,2357,2360,2360,2359,2358,2358,2360,2359,2359,2359,2360,2365,2364,2365,2362,2362,2363,2362,2363,2368,2378,2380,2377,2375,2344,2286,2283,2300,2362,0,0,0,0,0,0,0,0,0,0,0,0,0,0,2418,2390,2374,2375,2374,2370,2367,2359,2356,2356,2358,2359,2358,2360,2365,2373,2379,2382,2380,2381,2378,2377,2371,2369,2365,2361,2359,2354,2353,2347,2345,2341,2337,2336,2335,2333,2327,2324,2322,2320,2319,2316,2314,2310,2308,2306,2301,2302,2301,2304,2299,2296,2291,2290,2291,2292,2291,2290,2289,2290,2288,2288,2287,2289,2289,2291,2290,2291,2293,2294,2293,2290,2289,2293,2296,2299,2301,2304,2305,2307,2305,2303,2303,2304,2309,2309,2309,2310,2313,2313,2312,2312,2314,2315,2314,2318,2319,2320,2321,2319,2319,2317,2318,2320,2318,2318,2317,2318,2320,2318,2314,2316,2319,2323,2321,2320,2321,2322,2321,2323,2328,2331,2331,2326,2326,2323,2327,2328,2328,2328,2331,2337,2335,2336,2337,2341,2344,2344,2347,2346,2348,2348,2352,2353,2354,2354,2358,2358,2359,2358,2356,2354,2355,2357,2358,2358,2360,2361,2365,2366,2370,2367,2369,2365,2366,2367,2370,2372,2372,2377,2381,2386,2394,2399,2402,2401,2400,2397,2396,2396,2397,2395,2396,2395,2398,2394,2394,2390,2388,2385,2387,2389,2388,2384,2383,2382,2386,2383,2384,2380,2382,2381,2385,2384,2385,2385,2389,2393,2397,2399,2399,2398,2399,2404,2409,2412,2410,2414,2414,2417,2414,2416,2419,2422,2426,2432,2439,2447,2457,2480,2503,2519,0,0,0,0,0,0,0,0,0,0,0,0,0,0,0,0,0,0,0,0,0,0,0,0,0,0,0,0,0,0,0,0,0,0,0,0,0,0,0,0,0,0,0,0,0,0,0,2465,2459,0,0,0,0,0,0,0,2441,0,0,0,2401,2411,2412,2395,2370,2337,2325,2304,2255,2249,2336,2289,2300,2294,0,0,0,0,0,0,0,0,2203,2200,2200,2202,2206,2205,2193,2175,0,0,0,2006,2003,1995,1968,0,0,0,0,0,0,0,0,0,0,0,0,0,0,0,0,0,0,0,0,0,0,0,0
