0,0,0,0,0,0,0,0,0,1391,1392,1410,1419,1440,1452,1458,1462,1472,1465,1479,1492,1502,1512,1526,1539,1548,1550,1559,1572,1579,1577,1582,1591,1599,1602,1605,1615,1621,1629,1628,1630,1630,1628,1626,1624,1626,1632,1634,1633,1624,0,1420,1402,1397,1407,0,1656,1685,1719,1752,1761,1750,1746,1745,1745,1742,1743,1743,1747,1761,1761,1754,1759,0,2049,0,1850,0,0,0,1496,1491,1489,1488,1491,1488,1490,0,2251,2252,2257,2263,2268,2274,2280,2283,2287,2295,2303,2306,2307,2310,2315,2318,2321,2323,2328,2332,2332,0,1479,1485,1487,1487,1484,1479,1474,1474,1472,1472,1472,1473,1471,1472,1474,1475,1473,1474,1477,1478,1476,1475,1477,1479,1479,1479,1478,1478,1479,1479,1483,1484,1482,1482,1480,1483,1482,1484,1485,1489,1487,1487,1483,1485,1486,1491,1492,1490,1490,1492,1491,1491,1490,1492,1490,1489,1488,1488,1489,1490,1494,1494,1495,1497,1499,1500,1497,1499,1497,1497,1499,1501,1502,1500,1499,1500,1502,1503,1503,1502,1503,1501,1502,1507,1509,1507,1506,1506,1509,1512,1510,1511,1508,1513,1512,1514,1512,1510,1518,1524,1523,1523,1525,1525,1521,1519,1522,1524,1523,1525,1526,1530,1530,1528,1520,1517,1518,1526,1528,1531,1533,1533,1531,1526,1526,1526,1530,1534,1536,1535,1534,1533,0,0,0,1543,1538,0,1537,1540,1544,1545,1537,1530,0,1540,0,1542,1540,0,0,0,0,0,0,0,1555,1555,1547,0,0,0,0,1548,1541,0,0,0,0,0,0,0,1548,1554,1548,0,0,0,0,1548,1546,0,0,1551,0,1559,0,0,0,0,0,1555,1565,1554,1563,1568,1565,1554,1553,1553,1558,1562,1559,1560,1560,1561,1561,1562,1565,1565,1567,1566,1567,1566,1567,1567,1565,0,0,0,0,0,0,0,0,0,0,1561,1561,1562,1569,1575,1581,1582,1582,1584,1585,1587,1587,1575,0,2537,2534,2537,2540,2543,2534,2521,2505,2498,2493,2489,2481,2477,2479,2480,2480,2480,2482,2483,2481,2483,2483,2488,2491,2495,2499,2503,2513,2519,2532,2563,2606,2627,2639,2641,2642,0,0,0,0,0,0,0,0,0,0,0,0,0,0,0,0,0,0,0,0,0,0,0,0,0,0,0,1424,1432,1452,1459,1461,0,0,0,0,0,0,0,0,0,0,0,0,1466,0,1450,1416,1298,1294,1359,1354,1345,0,0,0,2277,2280,2283,2277,2315,0,0,0,0,0,2340,0,0,0,0,0,0,0,0,0,0,0,0,0,0,0,0,0,0,0,2189,2197,2198,2196,2195,2191,2188,2182,2167,0,0,0,0,0,0,0,0,0,0,0,0,0,0,0,0,0,0,0,0,0,0,0,0,0,0,0,0,0,0
0,0,0,0,0,0,0,0,0,1390,1405,1412,1417,1445,1454,1447,1450,1468,1480,1478,1492,1513,1521,1532,1537,1546,1547,1555,1563,1569,1574,1584,1595,1603,1605,1612,1619,1631,1640,1637,1634,1632,1633,1637,1634,1637,1639,1641,1636,1630,0,1417,1400,1396,1408,0,1666,1673,1703,1733,1743,1740,1736,1737,1739,1739,1742,1745,1750,1753,1755,1751,1756,0,0,0,1854,0,0,0,1495,1488,1487,1486,1489,1488,1487,0,2253,2254,2257,2262,2270,2275,2282,2282,2289,2295,2303,2306,2308,2312,2315,2319,2323,2325,2326,2331,2337,2352,0,1479,1483,1484,1481,1480,1476,1476,1475,1472,1472,1472,1473,1472,1471,1472,1471,1473,1474,1474,1474,1473,1475,1476,1477,1477,1477,1477,1478,1479,1481,1482,1480,1480,1479,1481,1480,1482,1484,1485,1485,1483,1481,1483,1485,1487,1487,1485,1485,1487,1489,1489,1489,1490,1489,1488,1488,1488,1490,1491,1493,1492,1492,1495,1496,1497,1494,1496,1496,1497,1496,1496,1498,1498,1497,1499,1500,1502,1500,1499,1500,1501,1503,1503,1504,1501,1502,1503,1506,1509,1508,1508,1504,1505,1506,1509,1511,1509,1511,1513,1514,1515,1515,1514,1511,1512,1513,1512,1512,1514,1515,1518,1516,1519,1515,1515,1513,1517,1523,1525,1524,1522,1521,1521,1522,1522,1523,1524,1524,1525,1526,1529,1526,1528,1528,1534,1530,1531,1531,1533,1534,1534,1532,1529,1529,1530,1533,1533,1533,1533,1536,1539,1536,1534,1532,1540,1543,1546,1540,1538,1538,1540,1544,1545,1544,1544,1540,1540,1536,1539,1539,1541,1542,1544,1540,1543,1545,1545,1542,1547,1550,1551,1547,1548,1548,1549,1553,1556,1558,1553,1551,1551,1556,1556,1558,1558,1555,1553,1558,1562,1560,1561,1560,1560,1561,1561,1561,1562,1564,1566,1565,1565,1566,1565,1567,1566,1566,1565,1564,1562,1560,1561,1558,1559,1559,1563,1561,1562,1564,1566,1572,1574,1579,1579,1581,1582,1583,1585,1584,0,2538,2540,2535,2536,2532,2526,2514,2502,2495,2489,2487,2484,2478,2471,2473,2476,2474,2470,2472,2475,2477,2478,2482,2485,2487,2490,2494,2501,2507,2513,2533,2572,2613,2630,2642,2643,2642,0,0,0,0,0,0,0,0,0,0,0,0,0,0,0,0,0,0,0,0,0,0,0,0,0,0,0,0,0,0,0,1497,0,0,0,0,0,0,1481,0,0,0,0,0,1461,0,1360,1342,1364,1369,1392,1399,1380,1384,0,0,2280,2283,2275,2274,0,0,0,0,0,0,0,0,0,2326,0,2274,0,0,0,0,0,0,0,0,0,0,0,0,0,0,2180,2202,2201,2195,2192,2188,2188,2183,2150,0,0,0,0,0,0,0,0,0,0,0,0,0,0,0,0,0,0,0,0,0,0,0,0,0,0,0,0,0,0
0,0,0,0,0,0,0,0,0,1397,1398,1406,1413,1433,1451,1451,1445,1459,1472,1483,1493,1517,1532,1541,1545,1552,1552,1555,1558,1564,1574,1588,1594,1604,1611,1619,1626,1637,1643,1640,1635,1635,1639,1643,1641,1643,1645,1645,1642,1638,0,1407,1395,1392,1406,0,1685,1684,1711,1726,1739,1736,1733,1730,1737,1742,1744,1747,1750,1752,1751,1750,1756,0,0,0,1852,0,0,1512,1488,1478,1480,1481,1480,1482,1490,0,2250,2256,2261,2265,2270,2274,2281,2286,2292,2296,2302,2305,2309,2314,2318,2322,2324,2327,2329,2332,2336,2344,2354,0,0,0,1474,1479,1477,1477,1474,1471,1470,1470,1473,1473,1471,1472,1471,1473,1474,1474,1475,1474,1475,1475,1477,1478,1478,1479,1478,1478,1479,1478,1478,1479,1478,1479,1480,1483,1484,1484,1484,1484,1485,1486,1488,1489,1488,1485,1485,1485,1488,1488,1489,1490,1488,1488,1489,1490,1491,1491,1492,1493,1493,1496,1496,1497,1494,1494,1494,1496,1495,1494,1496,1497,1497,1497,1497,1499,1498,1498,1498,1500,1503,1502,1502,1501,1503,1503,1505,1506,1506,1507,1506,1506,1506,1509,1511,1510,1511,1512,1513,1513,1512,1513,1511,1511,1510,1510,1510,1513,1513,1513,1512,1514,1513,1512,1511,1514,1520,1524,1521,1518,1519,1519,1520,1519,1521,1522,1521,1521,1524,1528,1526,1526,1526,1530,1529,1530,1530,1529,1529,1530,1531,1530,1529,1530,1531,1533,1530,1532,1532,1536,1533,1534,1534,1537,1537,1539,1538,1537,1536,1538,1542,1544,1545,1543,1542,1540,1539,1539,1541,1540,1541,1542,1541,1544,1545,1546,1543,1545,1547,1547,1546,1548,1548,1549,1551,1553,1555,1551,1551,1549,1553,1555,1556,1555,1554,1555,1560,1562,1560,1559,1558,1558,1560,1560,1561,1561,1563,1565,1565,1564,1565,1564,1566,1565,1568,1564,1563,1562,1564,1566,1562,1562,1563,1565,1565,1566,1569,1569,1570,1571,1573,1576,1581,1585,1584,1582,0,0,2531,2534,2528,2528,2520,2515,2501,2491,2484,2481,2480,2479,2475,2469,2468,2471,2469,2463,2462,2468,2474,2476,2478,2480,2483,2483,2484,2487,2490,2502,2535,2588,2622,2634,2640,2638,2632,0,0,0,0,0,0,0,0,0,0,0,0,1404,0,0,0,0,0,0,0,0,0,1392,0,0,0,0,0,0,0,0,0,0,0,0,0,0,0,0,0,0,0,0,0,0,0,1354,1362,1342,1359,1409,0,0,0,0,0,2279,2272,2275,2293,0,0,0,0,0,0,0,0,0,0,0,0,0,0,0,0,0,0,2140,0,0,0,0,0,0,0,0,2202,2203,2193,2190,2183,2183,2175,2155,0,0,0,0,0,0,0,0,0,0,0,0,0,0,0,0,0,0,0,0,0,0,0,0,0,0,0,0,0,0
0,0,0,0,0,0,0,0,0,1400,1400,1409,1413,1431,1440,1453,1449,1459,1461,1478,1491,1514,1524,1529,1537,1542,1542,1546,1554,1564,1575,1585,1595,1604,1613,1625,1631,1640,1644,1641,1635,1636,1645,1653,1652,1651,1649,1644,1642,1635,0,1403,1393,1394,1411,0,1698,1707,1731,1733,1737,1735,1733,1730,1738,1742,1745,1746,1750,1750,1750,1746,1753,0,0,0,1856,0,0,0,1475,1472,1472,1477,1474,1479,1483,0,2254,2260,2264,2269,2274,2280,2286,2290,2293,2294,2299,2304,2309,2313,2318,2323,2327,2329,2330,2333,2337,2340,2344,2350,2356,0,0,0,1476,1474,1475,1473,1474,1473,1476,1476,1472,1470,1472,1473,1473,1473,1475,1475,1477,1477,1478,1479,1479,1480,1481,1479,1480,1477,1479,1479,1480,1480,1481,1483,1485,1484,1486,1486,1487,1485,1486,1487,1489,1486,1485,1483,1486,1487,1488,1488,1488,1489,1491,1491,1491,1490,1492,1493,1494,1494,1495,1496,1494,1495,1495,1498,1495,1494,1494,1495,1496,1496,1497,1499,1499,1499,1499,1502,1505,1504,1503,1501,1503,1504,1504,1505,1506,1509,1508,1507,1507,1508,1510,1508,1510,1509,1510,1510,1511,1512,1510,1510,1510,1511,1512,1514,1512,1512,1512,1513,1513,1514,1513,1515,1520,1523,1521,1518,1520,1520,1521,1519,1522,1522,1521,1521,1525,1529,1526,1525,1525,1528,1528,1528,1528,1528,1529,1531,1532,1532,1530,1530,1530,1531,1528,1530,1531,1534,1533,1534,1536,1537,1536,1535,1535,1536,1537,1538,1540,1540,1541,1542,1543,1543,1542,1541,1540,1541,1541,1544,1543,1546,1547,1548,1546,1544,1545,1546,1546,1548,1549,1550,1551,1553,1554,1551,1550,1549,1552,1555,1555,1554,1553,1557,1559,1561,1560,1560,1559,1560,1561,1561,1562,1561,1563,1565,1566,1566,1567,1567,1567,1566,1567,1566,1564,1564,1565,1567,1565,1565,1566,1567,1565,1564,1568,1572,1572,1570,1571,1574,1579,1583,1584,0,0,2523,2526,2531,2526,2521,2511,2501,2493,2485,2481,2476,2476,2474,2472,2468,2465,2465,2465,2462,2463,2467,2472,2470,2472,2472,2475,2475,2472,2476,2474,2495,2545,2611,2635,2639,2637,2628,0,0,0,0,0,0,1387,0,1462,1445,1439,1438,1460,0,0,0,0,1421,0,1415,1420,1420,0,0,1356,0,0,0,0,1488,0,0,0,0,0,0,0,0,0,0,0,0,0,0,0,0,1345,0,1365,1344,1316,1371,1388,0,0,0,0,0,2285,2287,2305,2285,2281,0,0,0,0,0,0,0,0,0,0,0,0,0,0,0,0,2132,2136,0,0,0,0,0,0,0,2189,2193,2184,2178,2174,2174,2165,2118,0,0,0,0,0,0,0,0,0,0,0,0,0,0,0,0,0,0,0,0,0,0,0,0,0,0,0,0,0,0
0,0,0,0,0,0,0,0,0,1392,1391,1400,1409,1422,1437,1451,1452,1465,1467,1481,1496,1512,1518,1528,1536,1542,1540,1541,1555,1567,1580,1583,1595,1599,1608,1619,1626,1637,1643,1648,1644,1647,1659,1665,1664,1654,1651,1643,1640,1629,0,1401,1397,1400,1420,0,1696,1714,1738,1734,1739,1738,1737,1736,1743,1748,1747,1747,1749,1751,1751,1747,1750,0,0,1935,1864,0,0,0,1468,1463,1466,1470,1474,1476,1479,0,0,2266,2272,2277,2278,2283,2285,2289,2290,2296,2300,2305,2310,2314,2319,2324,2328,2331,2332,2336,2338,2341,2342,2345,2347,2353,2363,0,0,0,1471,1474,1474,1475,1475,1476,1474,1473,1473,1473,1473,1472,1473,1475,1478,1481,1483,1484,1485,1487,1487,1483,1482,1480,1481,1482,1482,1482,1483,1487,1489,1488,1489,1490,1491,1489,1489,1490,1493,1491,1488,1486,1487,1489,1489,1488,1490,1492,1495,1495,1493,1492,1493,1495,1496,1496,1498,1501,1500,1499,1497,1499,1496,1496,1495,1497,1497,1497,1499,1499,1501,1501,1502,1503,1506,1506,1505,1504,1505,1505,1506,1506,1507,1509,1510,1510,1510,1509,1510,1509,1512,1512,1512,1511,1514,1516,1515,1513,1512,1514,1514,1516,1514,1513,1513,1514,1514,1515,1514,1516,1520,1524,1523,1521,1522,1522,1522,1521,1524,1524,1524,1522,1525,1528,1527,1526,1526,1527,1528,1527,1528,1527,1529,1530,1532,1530,1529,1532,1532,1532,1529,1530,1530,1532,1532,1535,1537,1537,1538,1537,1538,1540,1538,1537,1538,1539,1540,1539,1543,1544,1544,1545,1543,1544,1542,1545,1545,1547,1549,1549,1550,1546,1548,1546,1547,1548,1550,1552,1552,1553,1554,1554,1551,1548,1549,1549,1549,1550,1552,1557,1557,1560,1559,1561,1560,1560,1560,1561,1563,1562,1564,1565,1566,1566,1568,1570,1571,1568,1567,1568,1565,1564,1564,1565,1565,1564,1567,1567,1567,1567,1571,1574,1573,1575,1576,1580,1579,1581,0,0,2518,2522,2521,2523,2516,2507,2498,2493,2489,2481,2475,2474,2474,2472,2471,2468,2464,2462,2462,2462,2462,2463,2466,2463,2464,2465,2468,2467,2462,2466,2470,2493,2563,2618,2637,2639,2633,2621,0,0,0,0,0,0,0,0,0,0,0,0,0,0,0,0,0,0,1424,1430,1408,1399,0,0,0,0,0,0,1432,0,1461,0,0,0,0,0,0,0,0,0,0,0,0,0,0,0,1373,0,1410,1352,1313,1375,1418,0,0,0,0,0,2292,2298,2292,2287,2287,0,0,0,0,0,0,0,0,0,0,0,0,0,0,0,0,0,0,0,0,0,0,0,0,0,0,2156,2149,2162,2156,2145,2117,0,0,0,0,0,0,0,0,0,0,0,0,0,0,0,0,0,0,0,0,0,0,0,0,0,0,0,0,0,0,0
0,0,0,0,0,0,0,0,0,1391,1396,1404,1410,1424,1430,1452,1479,1460,1469,1491,1500,1507,1519,1518,1526,1533,1546,1546,1557,1569,1583,1583,1592,1595,1609,1618,1629,1640,1650,1656,1654,1657,1673,1685,1683,1662,1650,1639,1634,1611,0,1402,1399,1403,1424,0,1683,1708,1732,1735,1737,1737,1738,1739,1743,1746,1745,1748,1749,1753,1752,1746,1749,0,0,0,1878,0,0,0,1459,1459,1460,1464,1470,1476,1478,1470,2258,2271,2277,2282,2282,2284,2286,2288,2290,2296,2303,2308,2311,2315,2320,2326,2330,2332,2333,2338,2340,2341,2342,2344,2347,2350,2352,2356,2360,0,0,0,0,0,1474,1476,1476,1475,1472,1472,1471,1471,1471,1474,1478,1484,1485,1485,1485,1491,1491,1490,1489,1490,1491,1491,1490,1490,1490,1494,1495,1494,1494,1492,1492,1490,1489,1491,1494,1497,1494,1493,1491,1490,1487,1487,1491,1493,1495,1497,1497,1498,1498,1499,1498,1498,1499,1504,1503,1503,1498,1499,1497,1500,1497,1500,1500,1502,1506,1505,1506,1503,1506,1509,1512,1514,1511,1509,1508,1510,1511,1511,1512,1512,1513,1513,1516,1515,1515,1512,1516,1516,1516,1513,1517,1521,1520,1519,1516,1519,1519,1522,1521,1518,1518,1520,1521,1521,1521,1524,1528,1532,1529,1525,1523,1525,1526,1528,1530,1529,1529,1529,1529,1528,1527,1529,1529,1530,1528,1528,1528,1530,1531,1532,1534,1533,1533,1533,1533,1532,1532,1534,1534,1534,1536,1536,1540,1539,1543,1541,1541,1543,1543,1542,1541,1540,1541,1540,1545,1548,1549,1551,1546,1547,1543,1547,1546,1548,1550,1551,1553,1552,1551,1550,1549,1549,1551,1552,1553,1556,1557,1557,1552,1547,1544,1542,1542,1544,1547,1554,1555,1559,1560,1563,1563,1564,1564,1565,1563,1563,1565,1566,1567,1569,1571,1574,1573,1569,1568,1569,1566,1564,1562,1564,1566,1567,1569,1568,1568,1567,1568,1572,1576,1579,1583,1581,0,0,2515,2520,2522,2520,2520,2516,2507,2495,2489,2485,2484,2480,2476,2472,2471,2470,2468,2467,2462,2459,2458,2460,2461,2459,2459,2455,2455,2455,2458,2460,2457,2461,2466,2489,2549,2617,2637,2638,2635,0,0,0,0,0,0,0,0,0,0,0,0,0,1472,1436,0,0,0,0,0,0,1365,0,1366,0,0,0,1480,1455,1403,1395,1442,0,1460,0,0,0,0,0,0,0,0,0,0,0,0,1439,1427,1418,0,1343,1339,1398,0,0,0,1306,0,0,0,2289,2293,2284,2284,0,0,0,0,0,0,0,0,0,0,0,0,0,0,0,0,0,0,0,0,0,0,0,0,0,0,0,0,0,0,0,0,0,0,0,0,0,0,0,0,0,0,0,0,0,0,0,0,0,0,0,0,0,0,0,0,0,0,0,0,0,0,0
0,0,0,0,0,0,0,0,0,1389,1393,1398,1408,1418,1433,1455,1454,1458,1469,1481,1495,1509,1517,1513,1516,1536,1548,1554,1556,1568,1582,1581,1584,1591,1607,1620,1629,1642,1649,1659,1664,1673,1687,1695,1701,0,0,0,0,0,0,1398,1397,1398,1416,0,1688,1704,1733,1730,1737,1737,1740,1744,1745,1747,1745,1748,1749,1753,1751,1746,1745,0,2051,2023,1886,0,0,1456,1457,1457,1457,1459,1463,1466,1468,1467,2260,2270,2277,2282,2284,2286,2287,2290,2292,2298,2304,2309,2314,2317,2322,2326,2329,2332,2335,2339,2342,2342,2343,2345,2347,2349,2351,2356,2357,2358,2357,2358,2354,0,0,0,0,1476,1472,1473,1472,1472,1472,1475,1478,1476,0,0,0,0,0,0,0,0,0,0,1526,1517,1514,1519,1520,1515,1507,1503,1500,1502,1506,1505,1507,1505,1497,1495,1495,1492,1492,1492,1495,1495,1497,1500,1502,1505,1501,1503,1500,1499,1500,1506,1504,1503,1496,0,0,0,0,0,0,0,0,0,0,0,1507,1511,1520,1521,1520,1519,1519,1523,1523,1524,1521,1521,1526,1529,1537,1534,1535,1531,1535,1535,1536,1530,1529,1534,1538,1539,1534,1535,1534,1538,1537,1533,1530,1532,1531,1532,1537,1541,1544,1548,1542,1536,1529,1527,1531,1538,1537,1537,1537,1538,1536,1531,1529,1535,1538,1535,1531,1532,1533,1532,1535,1536,1537,1538,1539,1539,1537,1538,1540,1541,1542,1541,1542,1542,1543,1545,1548,1548,1551,1550,1548,1546,1547,1544,1544,1541,1544,1550,1552,1555,1551,1551,1547,1549,1549,1551,1553,1553,1557,1558,1557,1556,1556,1552,1551,1554,1556,1557,1558,1560,1553,1544,1539,1536,1539,1541,1547,1552,1555,1558,1561,1565,1565,1566,1565,1566,1566,1565,1566,1567,1567,1569,1571,1573,1573,1570,1571,1568,1566,1561,1563,1563,1566,1568,1570,1570,1570,1570,1566,1567,0,0,0,0,2497,2503,2511,2518,2521,2518,2515,2507,2494,2485,2481,2479,2477,2474,2471,2468,2468,2467,2465,2464,2459,2456,2453,2454,2453,2452,2453,2451,2450,2451,2455,2460,2457,2457,2459,2472,0,0,2623,2612,0,0,0,0,0,0,0,0,0,0,0,0,0,0,0,0,0,0,0,0,0,0,0,0,0,0,0,0,0,1460,1437,1426,1437,1446,1472,1452,1398,1440,0,0,0,0,0,0,0,0,0,1464,1461,1432,0,1345,1331,1348,1371,0,0,0,0,0,0,2270,2279,2286,2279,0,0,0,0,0,0,0,0,0,0,0,0,0,0,0,0,0,0,0,0,0,0,0,0,0,0,0,0,0,0,0,0,0,0,0,0,0,0,0,0,0,0,0,0,0,0,0,0,0,0,0,0,0,0,0,0,0,0,0,0,0,0,0
0,0,0,0,0,0,0,0,1391,1384,1398,1403,1409,1424,1438,1433,1454,1461,1464,1472,1483,1508,1518,1511,1512,1528,1548,1559,1561,1571,1577,1584,1587,1596,1615,1628,1634,1640,1645,1653,1661,1674,1685,1690,1692,0,0,0,0,0,1369,1395,1394,1398,1416,0,1683,1707,1735,1733,1737,1736,1738,1741,1746,1746,1746,1749,1751,1753,1752,1748,1750,0,0,1990,1900,0,0,1469,1467,1462,1460,1459,1457,1458,1456,0,0,2269,2276,2282,2287,2288,2291,2293,2297,2299,2305,2311,2316,2319,2323,2326,2329,2333,2337,2340,2343,2343,2345,0,2350,2351,2352,2355,2357,2358,2357,2358,2356,2355,2358,2361,0,0,1471,1472,1472,1474,1473,1476,1477,0,2362,2355,0,0,0,0,2353,2277,2268,2268,0,0,0,0,0,0,0,0,0,0,0,0,0,0,0,0,0,0,0,0,0,0,0,0,0,0,0,0,0,0,0,0,0,0,0,0,0,0,0,0,0,0,0,0,0,0,0,0,0,0,0,2305,2296,0,2285,2269,2267,2270,2271,2270,2268,2271,2267,2264,2260,2264,2262,2261,2257,2256,2261,2263,2260,2264,2265,2268,2269,2271,2268,2273,2277,2281,2277,2272,2276,2289,0,0,0,0,0,0,0,0,0,0,0,0,0,0,0,0,0,0,0,0,0,0,0,0,0,0,0,0,0,0,0,0,0,0,0,0,0,0,0,0,0,0,0,0,0,0,0,0,0,0,0,0,0,0,0,0,0,0,0,0,0,0,0,0,0,0,0,0,0,1561,1556,0,0,0,0,0,1551,1558,1559,1561,1561,1564,1565,1568,1568,1569,1567,1566,1566,1568,1570,1572,1573,1573,1573,1569,1571,1562,1561,1559,1563,1565,1567,1570,1571,1573,1569,0,0,0,0,0,2489,2493,2500,2505,2509,2511,2511,2508,2501,2494,2483,2477,2471,2471,2472,2471,2468,2462,2462,2459,2458,2457,2454,2453,2451,2451,2452,2452,2451,2448,2448,2448,2451,2453,2454,2455,2454,2461,2478,2534,2596,0,0,0,0,0,0,0,0,0,0,0,0,0,0,0,0,0,0,0,0,0,0,0,0,0,0,0,0,0,0,1441,1439,0,0,0,1439,1428,0,1413,0,0,0,0,0,0,0,0,0,0,1504,1431,1447,1334,1405,0,0,0,0,0,0,0,0,0,0,0,2300,0,0,0,0,0,0,0,0,0,0,0,0,0,0,0,0,0,0,0,0,0,0,0,0,0,0,0,0,0,0,0,0,0,0,0,0,0,0,0,0,0,0,0,0,0,0,0,0,0,0,0,0,0,0,0,0,0,0,0,0,0,0,0
0,0,0,0,0,0,0,0,1396,1397,1401,1407,1411,1419,1436,1448,1440,1459,1468,1472,1491,1507,1520,1524,1524,1534,1545,1558,1563,1568,1572,1582,1588,1601,1618,1630,1630,1633,1639,1653,1662,1672,1680,1693,0,0,0,0,0,0,0,1393,1395,1402,1423,0,1685,1712,1740,1735,1738,1737,1738,1744,1752,1750,1748,1749,1753,1755,1753,1750,0,0,0,0,1906,0,0,1476,1467,1460,1455,1455,1454,1452,1449,0,0,2267,2273,2280,2287,2290,2293,2295,2300,2302,2306,2311,2317,2321,2324,2328,2330,2335,2338,2340,2342,2344,2346,0,2350,2352,2353,2355,2357,2358,2358,2360,2359,2358,2362,2366,2367,0,0,1473,1473,1474,1472,1474,0,0,2359,2358,2364,2378,2387,2393,2347,2282,2273,2274,2319,0,0,0,0,0,0,0,0,0,0,0,0,0,0,0,2449,0,0,0,0,2478,0,0,0,0,0,0,0,0,0,0,2463,2464,2486,2479,2479,2485,2481,2477,2464,2453,2449,2440,2438,2431,2415,2372,2345,2331,2319,2307,2304,2297,2289,2281,2278,2279,2278,2277,2277,2279,2275,2273,2269,2272,2269,2269,2268,2269,2270,2274,2274,2274,2275,2281,2283,2283,2278,2278,2284,2289,2289,2289,2291,2292,2296,2301,2307,2311,2318,2324,2329,2326,2325,2325,2330,2326,2322,2320,2322,2323,2327,2330,2333,2337,2339,2337,2337,2338,2339,2338,2336,2334,2335,2333,2339,2339,2345,2341,2346,2348,2350,2351,2355,2356,2353,2352,2362,2371,2373,2373,2369,2364,2362,2363,2363,2368,2373,2375,2367,2366,2367,2369,2364,2360,2359,2362,2373,2376,2375,2370,2370,2370,2368,2367,0,0,0,0,0,0,0,2368,0,0,1562,1565,1565,1569,1568,1568,1567,1568,1569,1570,1569,1571,1573,1573,1571,1566,1560,0,0,1555,1564,1563,1563,1562,1564,1560,0,2464,2464,2466,2477,2484,2492,2493,2498,2502,2505,2502,2501,2495,2486,2481,2474,2470,2465,2464,2465,2462,2463,2461,2462,2458,2456,2453,2451,2450,2449,2451,2450,2450,2447,2445,2447,2450,2449,2451,2449,2452,2449,2454,2461,2472,2491,0,0,0,0,0,0,0,0,0,0,0,0,0,0,0,0,0,1439,1442,0,0,0,0,0,1375,0,0,0,0,1414,1412,0,0,0,1421,1373,0,0,0,0,0,0,0,0,0,0,0,0,0,0,1466,1385,0,0,0,0,0,0,0,0,0,0,0,0,0,2335,0,0,0,0,0,0,0,0,0,0,0,0,0,0,0,0,0,0,0,0,0,0,0,0,0,2159,2164,2164,2169,2171,2171,2151,2129,0,0,0,0,0,0,0,0,0,0,0,0,0,0,0,0,0,0,0,0,0,0,0,0,0,0,0,0,0,0
0,0,0,0,0,0,0,0,1384,1412,1416,1419,1427,1429,1427,1424,1438,1460,1475,1480,1492,1504,1518,1524,1531,1537,1549,1558,1562,1569,1568,1580,1592,1605,1623,1630,1633,1635,1645,1659,1662,1667,1673,1689,1701,0,0,0,0,0,0,1397,1397,1407,1431,0,1682,1715,1739,1737,1739,1739,1741,1746,1752,1751,1750,1752,1756,1757,1755,1754,0,0,0,0,0,0,0,1461,1457,1455,1453,1453,1452,1451,1452,0,0,2266,2272,2281,2290,2293,2295,2295,2300,2304,2310,2314,2317,2320,2324,2327,2330,2334,2336,2337,2338,2343,0,0,0,2352,2352,2353,2355,2356,2359,2360,2359,2358,2364,2363,2361,0,0,1471,0,0,0,1472,0,0,2357,2358,2364,2376,2386,2396,2350,2283,2275,2275,0,0,0,0,0,0,0,2480,0,0,0,2469,2469,2469,2468,2469,2472,2474,2479,0,2479,2487,2507,2511,0,2473,2482,2492,2488,2484,2484,2481,2478,2476,2478,2477,2474,2475,2466,2460,2450,2446,2441,2436,2433,2422,2395,2361,2337,2325,2317,2307,2304,2295,2290,2280,2279,2277,2276,2275,2275,2277,2274,2273,2272,2274,2271,2270,2271,2274,2275,2276,2276,2277,2278,2283,2286,2288,2284,2284,2287,2292,2295,2296,2297,2298,2301,2307,2312,2314,2321,2327,2334,2332,2332,2332,2337,2334,2334,2331,2331,2330,2333,2337,2338,2337,2338,2338,2340,2341,2345,2343,2345,2343,2344,2340,2343,2345,2349,2350,2353,2355,2354,2355,2358,2359,2360,2360,2367,2370,2372,2372,2370,2369,2369,2367,2368,2371,2376,2377,2370,2370,2368,2371,2369,2367,2366,2369,2375,2376,2375,2371,2374,2377,2378,2377,2379,2381,2380,2375,2377,2378,2379,2376,2373,0,0,1566,1565,1568,1567,1568,1567,1568,1569,1570,1569,1570,1573,1573,1572,1566,1560,0,0,1545,1563,1565,1560,1560,1558,0,0,2463,2467,2474,2482,2486,2492,2493,2500,2500,2501,2493,2491,2482,2475,2468,2464,2461,2460,2459,2459,2457,2459,2457,2457,2455,2455,2451,2447,2448,2448,2450,2448,2449,2445,2445,2446,2447,2444,2443,2447,2450,2451,2452,2456,2455,2461,2468,0,0,0,0,0,0,0,0,0,0,0,0,0,0,1484,1463,1414,1421,1472,1412,1393,1423,1380,1359,0,1464,1469,1429,1427,0,0,0,0,1385,0,0,0,0,0,0,0,0,0,0,0,0,0,0,0,0,1424,1368,0,0,0,0,0,0,0,0,0,0,0,0,0,0,0,0,0,0,0,0,0,0,0,0,0,0,0,0,0,0,0,0,0,0,0,0,0,0,2185,2185,2181,2185,2188,2185,2172,2143,0,0,0,0,0,0,0,0,0,0,0,0,0,0,0,0,0,0,0,0,0,0,0,0,0,0,0,0,0,0
0,0,0,0,0,0,0,0,1385,1418,1417,1429,1433,1437,1424,1438,1449,1467,1478,1478,1493,1512,1526,1527,1533,1539,1542,1550,1555,1565,1575,1581,1593,1606,1619,1627,1633,1634,1648,1660,1669,1674,1674,1689,1692,0,0,0,0,0,1412,1397,1394,1402,1424,0,1684,1707,1732,1732,1737,1740,1744,1748,1749,1748,1748,1752,1754,1756,1752,1753,0,0,2089,2026,0,0,0,1456,1452,1452,1450,1450,1448,1449,1450,0,0,2262,2269,2278,2287,2291,2292,2294,2297,2303,2307,2311,2315,2320,2323,2326,2329,2333,2334,2337,2340,2344,0,0,0,0,0,2353,2354,2356,2360,2362,2362,2363,2367,2364,2360,0,0,1467,0,0,0,1469,0,0,2354,2356,2359,2373,2384,2397,2347,2280,2275,2275,0,0,2443,2450,0,0,0,2479,2462,2490,2445,2451,2473,2468,2473,2472,2474,2471,2472,2474,2485,2491,2509,2509,2474,2479,2486,2495,2490,2490,2489,2482,2483,2479,2479,2469,2458,2454,2447,2447,2441,2437,2430,2424,2416,2394,2368,2348,2334,2327,2316,2306,2298,2292,2286,2281,2279,2278,2276,2274,2275,2276,2274,2273,2272,2274,2272,2273,2273,2276,2275,2276,2275,2274,2276,2281,2286,2288,2283,2283,2286,2291,2294,2295,2296,2297,2300,2307,2313,2315,2319,2326,2332,2330,2331,2333,2336,2335,2336,2335,2332,2330,2331,2335,2334,2332,2333,2336,2338,2338,2340,2341,2345,2346,2346,2341,2343,2344,2347,2348,2350,2350,2351,2352,2357,2358,2360,2360,2364,2366,2367,2369,2369,2370,2368,2367,2369,2372,2374,2374,2371,2370,2368,2369,2369,2370,2371,2374,2376,2375,2371,2368,2372,2374,2378,2376,2378,2377,2378,2374,2373,2371,2373,2374,2375,2375,0,0,1566,1566,1565,1567,1568,1570,1570,1569,1569,1569,1572,1572,1572,1568,0,0,0,1548,1557,1558,1546,1554,1557,0,0,2460,2463,2470,2478,2481,2486,2485,2491,2486,2490,2482,2483,2473,2470,2463,2461,2458,2460,2457,2456,2453,2455,2452,2453,2452,2452,2449,2442,2441,2440,2443,2440,2439,2437,2440,2441,2443,2439,2439,2441,2444,2445,2446,2451,2451,2451,2455,0,0,0,0,0,0,0,0,0,0,0,0,0,0,0,0,0,1473,1452,0,0,1392,0,0,1447,0,1410,1445,1446,0,1433,1473,0,0,0,0,0,0,0,0,0,0,0,0,0,0,0,0,0,0,0,0,1306,0,0,0,0,0,0,0,0,0,0,0,0,0,0,2319,0,0,0,0,0,0,0,0,0,0,0,0,0,0,0,0,0,0,0,0,0,0,2201,2199,2193,2195,2199,2195,2181,2151,0,0,0,0,0,0,0,0,0,0,0,0,0,0,0,0,0,0,0,0,0,0,0,0,0,0,0,0,0,0
0,0,0,0,0,0,0,0,1401,1400,1408,1419,1430,1433,1445,1449,1455,1460,1463,1472,1499,1516,1523,1525,1533,1546,1551,1552,1559,1571,1583,1591,1599,1606,1619,1624,1633,1642,1656,1667,1675,1684,1686,1692,1691,0,0,0,0,0,1411,1397,1397,1402,1418,0,1683,1698,1723,1727,1733,1737,1744,1748,1745,1745,1746,1750,1751,1754,1751,1755,0,0,2099,2009,0,0,0,1458,1450,1453,1453,1454,1448,1447,1449,0,0,2259,2270,2282,2290,2292,2292,2293,2296,2301,2306,2311,2316,2320,2324,2327,2330,2333,2335,2337,2340,2345,0,0,2350,2352,2353,2354,2355,2357,2360,2361,2361,2363,2367,2366,2363,0,0,1466,0,0,0,1472,0,0,2353,2356,2362,2376,2387,2397,2346,2281,2277,2278,2339,2415,2419,0,0,0,2461,0,0,0,0,0,0,0,0,0,0,0,0,2436,2455,2483,2488,0,2442,2477,2485,2490,2487,2484,2480,2477,2474,2472,2467,2451,2433,2426,2427,2431,2428,2424,2418,2406,2390,2368,2352,2341,2331,2325,2317,2304,2295,2287,2284,2277,2276,2275,2275,2274,2274,2274,2271,2272,2273,2276,2274,2271,2271,2274,2276,2276,2275,2276,2277,2280,2282,2285,2283,2284,2286,2292,2293,2295,2295,2296,2299,2305,2312,2314,2318,2322,2326,2327,2329,2332,2334,2334,2334,2332,2330,2330,2331,2331,2331,2330,2332,2333,2335,2333,2337,2339,2346,2344,2344,2341,2342,2342,2344,2347,2351,2350,2352,2352,2357,2355,2355,2355,2361,2364,2365,2365,2366,2369,2369,2367,2368,2371,2373,2372,2369,2369,2368,2371,2373,2374,2372,2373,2373,2374,2368,2367,2369,2373,2376,2376,2376,2375,2376,2374,2373,2372,2372,2374,2373,2372,2372,0,1558,1565,1566,1567,1570,1571,1571,1569,1571,1572,1575,1574,1575,1568,0,0,0,0,1556,1553,0,1549,1557,0,0,2455,2461,2468,2474,2475,2478,2481,2487,2482,2481,2472,2469,2463,2463,2457,2455,2453,2454,2452,2450,2448,2447,2443,2443,2443,2444,2443,2438,2436,2435,2434,2432,2432,2433,2435,2434,2437,2435,2434,2435,2438,2445,2447,2453,2450,2452,2447,2449,0,0,0,0,0,0,0,0,0,0,0,0,0,0,0,0,0,0,0,0,0,0,0,0,0,0,1465,1444,1434,0,0,0,0,0,0,0,0,0,0,0,0,0,0,0,0,0,1410,1382,1386,0,0,0,0,0,2456,2475,0,0,0,0,0,0,0,0,0,0,0,0,0,0,0,0,0,0,0,0,0,0,0,0,0,0,0,0,0,0,0,0,2199,2206,2201,2197,2197,2199,2195,2184,2148,0,0,0,0,0,0,0,0,0,0,0,0,0,0,0,0,0,0,0,0,0,0,0,0,0,0,0,0,0,0
0,0,0,0,0,0,0,0,1390,1405,1398,1413,1415,1430,1433,1444,1455,1457,1463,1477,1509,1517,1507,1508,1536,1549,1554,1562,1565,1578,1584,1594,1596,1607,1624,1632,1635,1644,1653,1663,1670,1682,1691,1701,1704,1704,0,0,0,0,1379,1396,1399,1404,1419,0,1683,1695,1722,1728,1731,1734,1739,1747,1745,1746,1746,1749,1748,1749,1745,1748,1757,0,2091,1997,0,0,0,1454,1448,1449,1450,1452,1448,1446,1451,0,2253,2261,2273,2283,2287,2289,2291,2294,2297,2301,2306,2310,2315,2320,2324,2328,2331,2335,2337,2343,2346,2348,2348,2350,2352,2354,2355,2356,2358,2360,2362,2363,2363,2364,2366,2368,2368,2377,0,1469,1466,1462,1467,1471,0,2350,2351,2353,2361,2375,2384,2394,2339,2282,2277,2280,2333,2413,0,0,0,0,0,0,0,0,0,0,0,0,0,0,0,0,0,2430,2464,2472,2471,2466,2472,2477,2478,2483,2478,2474,2466,2462,2452,2443,2436,2424,2409,2402,2404,2411,2405,2396,2381,2372,2361,2350,2345,2335,2328,2318,2311,2301,2291,2287,2283,2280,2276,2276,2276,2277,2277,2274,2272,2272,2274,2275,2273,2272,2272,2274,2274,2273,2274,2274,2274,2275,2277,2281,2281,2283,2285,2288,2289,2292,2295,2299,2302,2306,2310,2313,2318,2321,2323,2323,2324,2327,2329,2330,2329,2329,2328,2328,2329,2328,2327,2329,2331,2332,2332,2328,2330,2333,2340,2340,2338,2339,2341,2342,2342,2344,2348,2347,2350,2349,2354,2351,2352,2352,2359,2360,2360,2358,2361,2366,2366,2366,2366,2369,2370,2369,2368,2368,2366,2368,2371,2375,2373,2373,2372,2375,2370,2369,2367,2370,2369,2371,2371,2373,2375,2377,2379,2377,2377,2375,2374,2373,2372,2381,2383,0,0,0,1575,1577,1578,0,1577,1579,0,0,0,0,0,0,0,0,1555,1553,1553,1557,1557,0,2452,2451,2453,2461,2468,2471,2473,2477,2478,2472,2470,2464,2460,2455,2457,2454,2452,2447,2449,2447,2448,2445,2443,2440,2439,2436,2434,2434,2432,2431,2431,2433,2431,2430,2430,2430,2430,2433,2432,2433,2432,2438,2442,2447,2450,2453,2454,2455,2453,2450,0,0,0,0,0,0,0,0,0,0,0,0,0,0,0,0,0,0,0,0,0,0,0,0,0,0,1429,0,0,1458,1423,0,0,0,0,0,0,0,0,0,0,0,0,0,0,1410,0,1375,0,0,1347,0,0,2460,2471,0,0,0,0,0,0,0,0,0,0,0,0,0,0,0,0,0,0,0,0,0,0,0,0,0,0,0,0,0,0,0,0,2208,2212,2210,2203,2198,2199,2197,2191,2165,0,0,0,0,0,0,0,0,0,0,0,0,0,0,0,0,0,0,0,0,0,0,0,0,0,0,0,0,0,0
0,0,0,0,0,0,0,0,0,1404,1401,1404,1413,1424,1425,1451,1457,1465,1472,1489,1492,1505,1499,1503,1524,1548,1553,1558,1566,1575,1583,1588,1601,1613,1627,1631,1641,1646,1662,1665,1670,1679,1692,1706,1715,0,0,0,0,0,1378,1398,1401,1408,1431,0,1680,1701,1732,1734,1731,1731,1735,1742,1744,1744,1746,1749,1751,1749,1747,1749,0,0,2099,0,0,0,0,0,1441,1445,1450,1452,1451,1449,1457,0,0,2264,2274,2283,2287,2288,2291,2295,2299,2303,2309,2312,2317,2319,2325,2330,2333,2336,2339,2344,2347,2347,2348,2350,2353,2356,2357,2358,2360,2361,2363,2362,2362,2361,2363,2363,2365,2363,2362,0,0,0,0,0,0,2354,2351,2351,2360,2371,2382,2387,2341,2285,2278,2280,0,0,0,0,0,0,0,0,0,0,0,0,0,0,0,0,0,0,0,0,2450,2462,2470,2477,2475,2476,2472,2479,2469,2462,2446,2432,2419,2409,2403,2396,2393,2387,2383,2384,2377,2364,2356,2354,2353,2342,2339,2331,2326,2314,2307,2297,2292,2285,2282,2278,2274,2273,2273,2274,2275,2273,2271,2269,2272,2273,2273,2270,2272,2271,2273,2271,2275,2274,2272,2271,2275,2279,2282,2284,2285,2285,2288,2292,2298,2299,2302,2304,2307,2310,2315,2319,2321,2320,2320,2322,2324,2327,2328,2327,2327,2326,2326,2325,2325,2326,2328,2329,2328,2326,2328,2333,2338,2337,2334,2337,2340,2344,2344,2345,2349,2347,2349,2347,2351,2348,2348,2348,2355,2356,2358,2354,2357,2363,2367,2366,2364,2367,2368,2369,2364,2364,2361,2367,2370,2374,2369,2368,2370,2373,2373,2371,2369,2372,2368,2370,2369,2374,2374,2375,2377,2379,2378,2377,2375,2374,2374,2378,2381,2379,2377,0,0,0,0,0,0,0,0,2380,2385,2392,2388,2389,2391,2384,0,1557,1558,0,0,0,2445,2447,2454,2460,2465,2465,2467,2470,2469,2463,2459,2454,2452,2448,2451,2448,2445,2443,2444,2444,2442,2441,2440,2439,2436,2433,2431,2430,2431,2431,2432,2433,2430,2430,2429,2429,2429,2430,2430,2432,2431,2435,2441,2446,2450,2451,2455,2454,2453,2447,2424,0,0,0,0,0,0,0,0,0,0,0,0,0,0,0,0,0,0,0,1496,1482,0,0,0,0,0,1479,0,0,0,0,0,0,0,0,0,0,0,0,0,0,0,0,0,0,0,0,0,1334,0,0,2447,2462,2472,0,0,0,0,0,0,0,0,0,0,0,0,0,0,0,0,0,0,0,0,0,0,0,0,0,0,0,0,0,0,0,0,2199,2213,2212,2204,2200,2198,2198,2192,2161,0,0,0,1977,1967,0,0,0,0,0,0,0,0,0,0,0,0,0,0,0,0,0,0,0,0,0,0,0,0,0
0,0,0,0,0,0,0,0,0,1408,1404,1412,1414,1431,1446,1458,1463,1469,1483,1484,1487,1491,1505,1510,1531,1541,1545,1552,1555,1571,1576,1594,1598,1613,1624,1629,1635,1647,1651,1660,1663,1674,1689,1706,1731,0,0,0,0,0,1394,1397,1399,1405,1427,0,1680,1714,1743,1739,1734,1734,1735,1738,1740,1743,1746,1750,1751,1751,1750,1749,0,0,0,0,0,0,0,0,1439,1442,1447,1450,1451,1450,1454,0,0,2266,2272,2277,2281,2285,2289,2294,2300,2306,2311,2313,2316,2320,2325,2330,2333,2335,2338,2343,2346,2346,2348,2350,2353,2356,2357,2359,2361,2362,2365,2364,2363,2362,2362,2363,2363,2362,2363,2364,2368,0,0,2376,2368,2361,2353,2351,2358,2368,2380,2384,2335,2284,2276,2279,2340,0,0,2402,0,2407,2411,2423,2420,2425,2414,2408,2409,0,2433,2437,2394,2401,0,2451,2454,2457,2473,2477,2466,2460,2451,2456,2447,2439,2419,2406,2400,2393,2387,2381,2378,2375,2369,2368,2360,2352,2347,2345,2342,2334,2328,2325,2318,2308,2299,2293,2288,2285,2281,2277,2272,2271,2271,2272,2272,2271,2268,2268,2270,2273,2270,2270,2270,2270,2270,2270,2273,2271,2271,2271,2277,2281,2283,2284,2285,2284,2285,2289,2296,2300,2301,2300,2301,2306,2311,2318,2319,2319,2317,2317,2320,2324,2325,2326,2323,2320,2320,2322,2324,2326,2325,2327,2328,2332,2332,2333,2333,2335,2334,2337,2337,2342,2341,2343,2344,2344,2344,2341,2344,2345,2347,2347,2351,2351,2353,2351,2353,2357,2360,2364,2365,2366,2367,2368,2367,2364,2357,2361,2363,2370,2368,2369,2370,2372,2373,2371,2370,2370,2367,2368,2370,2375,2375,2375,2374,2375,2375,2376,2375,2374,2375,2379,2379,2382,2383,2382,2378,2377,2383,2384,2384,2384,2386,2389,2392,2393,2396,2394,2398,2397,2399,0,0,0,0,2417,2432,2442,2449,2456,2460,2460,2459,2458,2455,2451,2450,2451,2449,2446,2445,2442,2439,2438,2440,2440,2437,2434,2434,2437,2436,2433,2429,2430,2429,2433,2432,2435,2429,2428,2425,2426,2429,2431,2429,2431,2433,2438,2438,2440,2442,2446,2453,2456,2453,2448,2445,0,0,0,0,0,0,0,0,0,0,0,0,0,0,0,0,0,0,0,0,0,0,0,0,0,0,0,1487,0,0,0,0,0,0,0,0,0,0,0,0,0,0,0,0,0,0,1425,0,0,0,0,2437,2461,2480,0,0,0,0,0,0,0,0,0,0,0,2336,0,0,0,0,0,0,0,0,0,0,0,0,0,0,0,0,0,0,0,0,2201,2209,2212,2207,2203,2200,2199,2190,2154,0,0,0,1987,1980,0,0,0,0,0,0,0,0,0,0,0,0,0,0,0,0,0,0,0,0,0,0,0,0,0
0,0,0,0,0,0,0,0,0,1399,1405,1410,1418,1435,1458,1464,1461,1475,1476,1498,1486,1501,1511,1530,1538,1547,1551,1551,1551,1567,1580,1596,1598,1605,1608,1616,1636,1643,1650,1650,1662,1680,1703,1700,0,0,0,0,0,0,1412,1393,1396,1403,1426,0,1690,1724,1740,1737,1738,1737,1738,1735,1740,1743,1748,1749,1751,1754,1756,1755,0,0,0,1996,0,0,0,1445,1441,1442,1445,1449,1450,1451,1451,0,0,2267,2275,2277,2281,2284,2290,2293,2300,2305,2310,2313,2317,2322,2327,2329,2333,2335,2338,2341,2345,2346,2350,2351,2354,2355,2356,2358,2359,2360,2362,2363,2363,2362,2363,2363,2363,2362,2363,2364,2365,2367,2368,2369,2369,2365,2359,2353,2358,2366,2381,2384,2339,2285,2277,2281,2323,0,0,0,2403,2414,2399,2412,2425,2414,2422,2418,2419,0,2447,0,2448,2430,2446,2454,2455,2454,2452,2451,2440,2431,2419,2416,2416,2415,2405,2397,2391,2383,2376,2370,2368,2368,2363,2359,2353,2348,2344,2339,2334,2326,2317,2316,2310,2305,2294,2288,2282,2280,2276,2273,2271,2270,2270,2270,2269,2268,2264,2263,2263,2266,2264,2266,2267,2268,2269,2271,2274,2273,2273,2274,2278,2281,2282,2283,2284,2285,2285,2288,2291,2294,2294,2295,2296,2303,2308,2314,2316,2316,2314,2312,2315,2319,2322,2323,2321,2318,2318,2319,2323,2325,2325,2327,2329,2330,2330,2331,2331,2332,2330,2334,2334,2337,2337,2338,2340,2342,2342,2341,2339,2342,2343,2346,2348,2349,2352,2352,2354,2357,2358,2361,2361,2362,2360,2362,2361,2363,2358,2361,2362,2367,2367,2369,2369,2371,2371,2371,2369,2369,2368,2370,2373,2373,2372,2370,2370,2373,2373,2374,2373,2373,2375,2375,2376,2377,2382,2382,2381,2380,2384,2386,2387,2387,2388,2391,2393,2395,2397,2396,2400,2401,2406,2405,2406,2409,2410,2413,2421,2433,2448,2455,2456,2449,2448,2443,2443,2438,2438,2439,2441,2443,2441,2439,2437,2436,2435,2433,2432,2429,2430,2431,2431,2430,2428,2430,2429,2429,2428,2431,2426,2424,2421,2425,2430,2431,2429,2427,2427,2431,2430,2432,2435,2441,2447,2446,2448,2448,2452,2456,0,0,0,0,0,0,0,0,0,0,0,0,0,0,0,0,0,0,0,0,0,0,0,0,0,0,1497,0,0,0,0,0,0,0,0,0,0,0,0,0,0,0,0,1363,0,1407,0,0,0,0,2451,2462,2478,0,0,0,0,0,0,0,0,0,0,2367,2360,0,0,0,0,0,0,0,0,0,0,0,0,0,0,0,0,0,0,0,0,2193,2207,2207,2205,2202,2200,2195,2184,2141,0,0,0,1992,1989,1974,0,0,0,0,0,0,0,0,0,0,0,0,0,0,0,0,0,0,0,0,0,0,0,0
0,0,0,0,0,0,0,0,0,1394,1409,1417,1423,1435,1459,1454,1456,1469,1482,1480,1501,1505,1525,1534,1532,1543,1552,1551,1549,1559,1571,1587,1595,1606,1604,1618,1634,1649,1639,1632,1650,1678,1704,1725,1716,0,0,0,0,0,1402,1393,1396,1401,1424,0,1699,1719,1739,1743,1744,1743,1740,1740,1742,1747,1749,1750,1751,1755,1757,1756,0,0,0,0,0,0,0,1446,1443,1444,1445,1449,1449,1450,1448,0,0,2273,2280,2282,2286,2287,2290,2294,2300,2305,2308,2312,2317,2323,2327,2328,2331,2335,2338,2339,2343,2344,2348,2350,2353,2355,2357,2359,2360,2361,2361,2363,2364,2365,2366,2367,2366,2365,2366,2367,2366,2363,2362,2364,2366,2364,2359,2355,2361,2370,2382,2384,2342,2288,2279,2283,0,0,0,0,0,0,0,0,0,0,0,0,0,0,0,0,0,2415,2432,2441,2437,2433,2420,2412,2403,2407,2397,2396,2395,2397,2394,2389,2386,2380,2375,2370,2365,2360,2354,2349,2347,2343,2342,2338,2331,2321,2309,2308,2303,2298,2289,2284,2278,2277,2273,2271,2270,2270,2271,2270,2268,2266,2263,2263,2262,2263,2262,2265,2265,2266,2269,2272,2274,2273,2273,2273,2275,2278,2281,2281,2284,2287,2288,2289,2289,2292,2293,2295,2295,2300,2303,2309,2312,2314,2314,2311,2312,2314,2315,2316,2315,2316,2315,2315,2318,2321,2322,2325,2328,2329,2328,2328,2330,2332,2330,2331,2330,2331,2332,2333,2337,2339,2339,2337,2335,2340,2340,2345,2345,2348,2349,2349,2351,2354,2355,2357,2358,2358,2356,2357,2359,2363,2359,2362,2361,2365,2365,2369,2370,2371,2367,2368,2367,2368,2370,2369,2372,2369,2373,2373,2374,2372,2371,2370,2369,2372,2374,2374,2372,2376,2380,2382,2381,2381,2383,2386,2386,2388,2388,2394,2395,2395,2396,2395,2399,2401,2406,2407,2408,2409,2411,2415,2419,2428,2439,2448,2447,2439,2438,2436,2438,2437,2436,2438,2436,2439,2435,2437,2434,2433,2429,2427,2430,2426,2427,2424,2427,2428,2426,2427,2421,2423,2424,2429,2423,2420,2418,2425,2427,2429,2425,2426,2426,2430,2429,2429,2431,2436,2441,2443,2448,2451,2455,2449,0,0,0,0,0,0,0,0,0,0,0,0,0,0,0,0,0,0,0,0,0,0,0,0,0,1495,0,0,0,0,0,0,0,0,0,0,0,0,0,0,0,0,0,1361,0,0,0,0,0,0,2462,2461,2478,0,0,0,0,0,0,0,1285,0,0,2350,0,0,0,2330,0,0,0,0,0,0,0,0,0,0,0,0,0,0,0,0,0,2202,2205,2205,2201,2198,2196,2192,2181,2138,0,0,0,1997,1994,1978,0,0,0,0,0,0,0,0,0,0,0,0,0,0,0,0,0,0,0,0,0,0,0,0
0,0,0,0,0,0,0,0,1367,1396,1413,1419,1422,1441,1440,1454,1459,1474,1474,1482,1480,1518,1514,1521,1524,1532,1543,1553,1550,1554,1564,1580,1595,1606,1605,1621,1646,1653,1644,1636,1653,1683,1705,1721,0,0,0,0,0,0,0,1393,1395,1402,1424,0,1695,1713,1736,1745,1746,1744,1744,1743,1745,1747,1751,1751,1751,1751,1754,1753,0,0,0,0,0,0,0,1443,1441,1443,1444,1446,1447,1448,1448,0,0,2279,2284,2285,2288,2290,2295,2297,2300,2303,2307,2312,2316,2320,2324,2327,2330,2333,2337,2340,2344,2346,2348,2350,2353,2355,2356,2358,2359,2359,2360,2362,2364,2365,2367,2367,2368,2367,2368,2368,2367,2363,2359,2357,2361,2362,2363,2359,2364,2372,2384,2388,2343,2289,2277,2283,0,0,0,0,0,2436,2430,0,2413,2409,0,2416,2403,2413,2420,2422,2400,2406,2407,2413,2407,2408,2397,2392,2390,2392,2388,2385,2383,2387,2385,2382,2376,2373,2370,2367,2361,2354,2346,2342,2341,2336,2334,2330,2326,2318,2310,2308,2302,2298,2289,2285,2278,2276,2272,2271,2269,2268,2269,2268,2267,2263,2263,2262,2262,2260,2261,2262,2267,2267,2271,2271,2274,2273,2273,2272,2272,2275,2278,2280,2283,2286,2289,2289,2288,2290,2294,2299,2298,2299,2301,2304,2307,2306,2309,2307,2308,2308,2312,2315,2315,2316,2313,2312,2316,2319,2321,2319,2323,2322,2324,2325,2327,2328,2325,2326,2328,2331,2332,2332,2336,2336,2335,2334,2332,2336,2335,2339,2338,2344,2346,2348,2350,2352,2353,2352,2354,2355,2352,2352,2353,2360,2361,2364,2362,2362,2361,2366,2367,2368,2364,2365,2364,2367,2369,2369,2370,2366,2372,2373,2375,2371,2370,2368,2369,2370,2371,2372,2371,2375,2380,2382,2381,2380,2381,2385,2386,2387,2390,2393,2395,2393,2393,2391,2396,2399,2405,2406,2405,2408,2412,2416,2418,2423,2431,2436,2435,2430,2433,2431,2434,2433,2432,2431,2429,2432,2430,2432,2431,2429,2426,2424,2428,2426,2426,2421,2422,2421,2422,2422,2419,2418,2420,2426,2425,2424,2421,2426,2427,2426,2424,2423,2425,2425,2426,2428,2430,2433,2437,2439,2445,2449,2449,2441,2423,0,0,0,0,0,0,0,0,0,0,0,0,0,0,0,0,0,0,0,0,0,0,0,0,1485,0,0,0,0,0,0,0,0,0,0,0,0,0,0,0,0,0,1411,1384,0,0,0,0,0,2465,2461,2461,0,0,0,0,0,0,0,0,1268,0,0,0,2362,2344,0,2318,0,0,0,0,0,0,0,0,0,0,0,0,0,0,0,0,2202,2214,2207,2201,2196,2194,2190,2181,2144,0,0,2002,1995,1989,1976,0,0,0,0,0,0,0,0,0,0,0,0,0,0,0,0,0,0,0,0,0,0,0,0
0,0,0,0,0,0,0,0,1349,1402,1411,1421,1419,1425,1436,1442,1455,1467,1469,1473,1482,1487,1523,1505,1508,1530,1534,1545,1550,1546,1559,1581,1603,1615,1615,1631,1645,1656,1649,1649,1665,1692,1701,1720,0,0,0,0,0,0,1417,1398,1396,1401,1424,0,1689,1709,1745,1750,1749,1744,1745,1748,1749,1747,1749,1749,1752,1753,1754,1753,0,0,0,0,0,0,0,1439,1441,1443,1444,1446,1447,1448,1448,0,0,2278,2285,2288,2290,2290,2294,2296,2300,2303,2308,2313,2317,2320,2322,2326,2330,2334,2337,2340,2343,2345,2347,2348,2350,2353,2356,2358,2358,2360,2361,2364,2364,2365,2366,2369,2370,2367,2366,2366,2367,2365,2362,2358,2359,2361,2361,2362,2368,2377,2384,2385,2342,2291,2278,2282,0,0,0,0,0,2407,0,0,0,0,2402,2409,2406,2409,2419,2422,2407,2404,2396,2401,2394,2396,2390,2387,2385,2388,2385,2380,2375,2375,2375,2374,2374,2371,2369,2366,2360,2349,2339,2333,2332,2328,2328,2326,2322,2314,2309,2306,2302,2296,2290,2284,2278,2278,2275,2274,2268,2265,2267,2266,2264,2260,2262,2264,2267,2265,2264,2262,2265,2266,2270,2270,2270,2269,2271,2271,2271,2271,2274,2276,2282,2283,2288,2287,2289,2290,2294,2295,2297,2297,2298,2299,2303,2302,2306,2304,2305,2305,2308,2310,2311,2314,2313,2311,2313,2314,2316,2314,2320,2320,2323,2324,2326,2327,2323,2326,2327,2331,2332,2333,2337,2335,2334,2333,2332,2335,2333,2335,2336,2341,2342,2342,2343,2344,2345,2345,2351,2355,2354,2349,2352,2357,2359,2359,2358,2359,2360,2362,2362,2362,2359,2361,2361,2364,2367,2367,2368,2367,2372,2372,2372,2367,2367,2367,2365,2366,2369,2373,2372,2375,2377,2379,2377,2375,2378,2383,2387,2388,2390,2393,2395,2393,2391,2389,2395,2399,2405,2405,2404,2404,2408,2413,2416,2418,2422,2426,2427,2425,2428,2431,2431,2430,2426,2426,2424,2424,2424,2425,2424,2424,2422,2421,2422,2422,2423,2419,2419,2420,2422,2422,2418,2417,2417,2421,2421,2423,2422,2425,2424,2423,2422,2423,2425,2428,2428,2430,2430,2432,2436,2439,2445,2449,2451,2448,2441,0,0,0,0,0,0,0,0,0,1348,0,0,0,0,0,0,0,0,0,0,1489,0,0,0,0,0,0,0,0,0,0,0,0,0,0,0,0,0,0,0,0,0,1431,0,1384,0,0,0,0,2455,2456,2465,0,0,0,0,0,0,0,0,0,0,0,2371,0,2315,0,0,0,0,0,0,0,0,0,0,0,0,0,0,0,0,0,0,2213,2213,2210,2202,2197,2194,2190,2182,2151,0,0,0,1994,1987,1971,0,0,0,0,0,0,0,0,0,0,0,0,0,0,0,0,0,0,0,0,0,0,0,0
0,0,0,0,0,0,0,0,1363,1391,1403,1417,1415,1423,1418,1441,1451,1454,1462,1472,1477,1486,1478,1486,1513,1521,1537,1546,1554,1557,1564,1585,1603,1612,1618,1626,1647,1661,1657,1664,1683,1696,1702,1707,0,0,0,0,0,0,1411,1403,1399,1403,1428,0,1687,1705,1736,1745,1751,1748,1752,1751,1748,1745,1747,1747,1752,1752,1753,1751,0,0,0,0,0,0,0,1440,1441,1441,1443,1444,1445,1444,1446,0,0,2276,2284,2288,2290,2291,2294,2297,2301,2305,2309,2315,2319,2320,2322,2326,2332,2335,2338,2341,2344,2347,2349,2350,2351,2352,2356,2359,2359,2360,2362,2364,2364,2364,2366,2367,2369,2367,2365,2363,2363,2363,2362,2360,2360,2362,2359,2360,2365,2378,2385,2386,2341,2292,2278,2285,0,0,0,0,0,0,0,0,0,0,0,0,2381,2398,2401,2405,2397,2391,2386,2389,2387,2385,2385,2385,2386,2384,2378,2373,2371,2372,2373,2371,2370,2364,2363,2357,2354,2344,2335,2328,2326,2323,2322,2319,2314,2306,2304,2300,2297,2291,2286,2281,2275,2274,2273,2271,2268,2263,2264,2263,2262,2259,2261,2264,2266,2265,2263,2263,2267,2269,2269,2268,2269,2269,2269,2270,2271,2272,2274,2276,2279,2280,2284,2286,2289,2289,2290,2291,2295,2298,2302,2300,2302,2300,2302,2303,2304,2305,2308,2310,2309,2308,2309,2311,2314,2313,2314,2313,2317,2317,2320,2322,2321,2323,2321,2324,2324,2329,2331,2332,2334,2335,2335,2334,2332,2332,2331,2334,2336,2336,2337,2337,2338,2340,2341,2343,2347,2352,2351,2346,2347,2353,2355,2354,2355,2357,2360,2361,2359,2357,2356,2357,2359,2361,2364,2366,2369,2368,2370,2368,2369,2368,2370,2369,2368,2366,2369,2372,2372,2374,2377,2378,2376,2373,2376,2381,2385,2387,2391,2394,2396,2393,2393,2392,2395,2399,2405,2404,2403,2403,2408,2412,2413,2414,2416,2420,2422,2426,2429,2429,2426,2424,2422,2422,2421,2420,2420,2418,2418,2419,2420,2418,2417,2416,2416,2413,2414,2413,2418,2419,2418,2415,2413,2416,2420,2422,2423,2423,2423,2422,2421,2424,2425,2428,2428,2430,2430,2433,2435,2437,2440,2443,2446,2447,2443,0,0,0,0,0,0,0,0,0,0,0,0,0,0,0,0,0,0,0,1537,0,0,0,0,0,0,0,0,0,0,0,0,0,0,0,0,0,0,0,0,0,0,0,0,0,0,0,0,2491,2452,2456,2502,0,0,0,0,0,0,0,0,0,0,2382,2364,2352,2319,0,0,0,0,0,0,0,0,0,0,0,0,0,0,0,0,0,0,2212,2216,2212,2206,2201,2199,2196,2187,2137,0,0,2024,2002,1991,1978,0,0,0,0,0,0,0,0,0,0,0,0,0,0,0,0,0,0,0,0,0,0,0,0
0,0,0,0,0,0,0,0,0,1381,1397,1412,1408,1415,1421,1428,1444,1450,1459,1460,1482,1498,1514,1503,1500,1525,1533,1555,1563,1567,1574,1592,1608,1618,1619,1634,1644,1654,1658,1672,1681,1693,1687,1700,1714,0,0,0,0,0,0,1402,1397,1402,1428,0,1691,1713,1736,1739,1746,1743,1746,1750,1750,1748,1747,1748,1752,1754,1755,1753,0,0,0,1952,0,0,0,1445,1445,1445,1448,1445,1446,1443,1446,0,0,2275,2283,2287,2289,2289,2291,2295,2300,2305,2310,2314,2321,2323,2325,2327,2331,2336,2338,2341,2343,2346,2348,2350,2352,2354,2357,2358,2359,2361,2362,2363,2362,2364,2366,2366,2364,2362,2364,2367,2368,2363,2361,2359,2358,2356,2352,2357,2367,2382,2388,2388,2344,2292,2280,2289,0,0,0,0,0,0,0,2444,2434,2420,2396,2380,2375,2376,2376,2385,2379,2378,2380,2379,2378,2375,2375,2378,2381,2381,2376,2373,2371,2369,2370,2368,2366,2357,2356,2352,2353,2343,2333,2322,2322,2321,2319,2318,2312,2304,2298,2295,2294,2289,2284,2280,2275,2274,2272,2272,2271,2266,2264,2261,2260,2258,2259,2261,2263,2263,2262,2263,2265,2266,2265,2264,2264,2267,2268,2269,2271,2274,2276,2275,2277,2281,2284,2286,2290,2289,2288,2287,2291,2294,2298,2298,2299,2299,2300,2300,2302,2304,2306,2306,2303,2302,2304,2308,2308,2308,2308,2314,2318,2319,2319,2320,2322,2323,2321,2322,2322,2326,2327,2328,2330,2332,2334,2336,2332,2331,2328,2331,2335,2334,2334,2334,2334,2339,2338,2341,2342,2348,2347,2346,2347,2351,2353,2354,2355,2358,2359,2359,2358,2355,2356,2355,2357,2361,2364,2365,2366,2367,2367,2363,2365,2366,2370,2369,2370,2368,2370,2371,2370,2371,2373,2374,2372,2371,2374,2377,2381,2384,2389,2394,2394,2393,2391,2395,2397,2400,2402,2403,2403,2402,2405,2408,2412,2414,2417,2422,2424,2426,2426,2426,2422,2421,2421,2422,2422,2421,2420,2418,2417,2417,2416,2414,2413,2411,2413,2410,2413,2413,2416,2415,2415,2415,2414,2414,2414,2416,2418,2421,2420,2420,2418,2423,2424,2426,2427,2428,2430,2432,2433,2436,2438,2443,2445,2449,2451,2447,0,0,0,0,0,0,1459,0,0,0,0,0,0,0,0,0,0,0,0,0,0,0,0,0,0,0,0,0,0,0,0,0,0,0,0,0,0,0,0,0,0,0,0,0,0,0,0,0,2461,2457,0,0,0,1321,1294,0,1308,0,0,0,0,2375,2358,2357,2360,0,2320,0,0,0,0,0,0,0,0,0,0,0,0,0,0,0,0,2207,2211,2210,2206,2201,2199,2195,2186,0,0,0,2038,2008,1996,1983,0,0,0,0,0,0,0,0,0,0,0,0,0,0,0,0,0,0,0,0,0,0,0,0
0,1497,0,0,0,0,0,0,0,1382,1400,1410,1406,1412,1426,1451,1455,1461,1462,1466,1478,1514,1540,1536,1518,1518,1539,1556,1571,1578,1582,1594,1605,1609,1618,1631,1640,1646,1648,1665,1670,1683,1689,1705,0,0,0,0,0,0,1413,1397,1393,1399,1427,0,1695,1717,1736,1734,1745,1742,1747,1748,1751,1748,1748,1749,1753,1756,1755,1756,0,0,0,1922,1888,0,0,1447,1448,1445,1447,1443,1443,1441,1445,0,0,2276,2282,2285,2289,2291,2292,2297,2303,2307,2310,2313,2320,2324,2327,2328,2331,2337,2339,2342,2343,2345,2347,2350,2353,2355,2358,2358,2360,2360,2361,2361,2362,2365,2367,2367,2365,2364,2364,2367,2366,2360,2359,2357,2355,2351,2351,2358,2370,2381,2393,2395,2353,2294,2282,2290,0,0,0,0,0,0,2436,2428,2428,2414,2396,2389,2384,2373,2369,2370,2370,2369,2370,2370,2370,2368,2367,2370,2369,2368,2367,2370,2370,2369,2368,2367,2361,2352,2349,2347,2347,2337,2330,2323,2323,2320,2318,2313,2308,2302,2295,2291,2289,2288,2283,2280,2275,2271,2270,2270,2271,2268,2265,2262,2262,2262,2261,2262,2262,2262,2262,2262,2264,2264,2265,2264,2266,2268,2268,2269,2271,2275,2277,2277,2278,2281,2284,2285,2287,2287,2289,2289,2292,2294,2295,2295,2298,2300,2301,2302,2303,2305,2305,2304,2300,2299,2302,2309,2309,2307,2308,2315,2319,2319,2317,2318,2321,2323,2322,2321,2321,2325,2327,2329,2328,2329,2329,2331,2329,2330,2329,2329,2330,2331,2333,2335,2335,2339,2335,2337,2336,2343,2343,2347,2348,2351,2351,2352,2353,2358,2359,2360,2359,2358,2359,2355,2355,2359,2362,2363,2364,2363,2365,2362,2365,2367,2370,2370,2371,2370,2371,2370,2371,2371,2374,2374,2373,2374,2375,2377,2378,2382,2387,2392,2390,2389,2389,2397,2397,2400,2400,2404,2405,2406,2408,2410,2414,2415,2415,2420,2424,2426,2425,2422,2419,2419,2421,2422,2421,2419,2418,2415,2414,2413,2413,2411,2413,2409,2411,2410,2412,2410,2411,2412,2415,2417,2418,2416,2414,2414,2417,2420,2418,2418,2420,2424,2427,2426,2428,2427,2431,2430,2429,2431,2435,2441,2443,2446,2446,2448,0,0,0,0,0,0,0,0,0,0,0,0,0,0,0,0,0,0,0,0,0,0,0,0,0,0,0,0,0,0,0,0,0,0,0,0,0,0,0,0,0,1445,0,0,0,0,1374,1378,2464,2464,0,0,0,0,0,0,0,0,0,0,0,2369,2365,0,2363,2355,0,0,0,0,0,0,0,0,0,0,0,0,0,0,0,0,0,2187,2202,2207,2204,2201,2197,2194,2182,2135,0,0,2030,2009,1997,1986,0,0,0,0,0,0,0,0,0,0,0,0,0,0,0,0,0,0,0,0,0,0,0,0
0,0,0,0,0,0,0,0,1390,1401,1402,1406,1406,1414,1439,1464,1466,1464,1477,1471,1477,1509,1534,1550,1536,1536,1537,1548,1564,1575,1585,1599,1610,1618,1622,1633,1639,1643,1647,1661,1666,1680,1691,1706,1718,0,0,0,0,0,1374,1393,1389,1396,1425,0,1701,1728,1744,1739,1743,1736,1738,1739,1748,1750,1750,1752,1754,1757,1756,1757,0,0,0,0,0,0,0,1445,1445,1446,1449,1446,1446,1443,1447,0,0,2277,2283,2286,2289,2291,2295,2300,2305,2307,2311,2312,2318,2322,2326,2328,2331,2337,2339,2342,2342,2344,2345,2347,2351,2355,2357,2357,2360,2359,2359,2360,2362,2366,2367,2367,2364,2364,2367,2369,2370,2363,2361,2357,2355,2349,2355,2364,2377,2385,2398,2402,2357,2295,2284,2292,2297,0,0,0,0,2414,2386,2395,2398,2393,2382,2379,2382,2378,2373,2370,2365,2362,2364,2365,2364,2362,2363,2364,2363,2363,2365,2367,2365,2362,2362,2362,2357,2350,2345,2345,2342,2334,2328,2325,2325,2321,2316,2312,2307,2302,2293,2291,2290,2289,2284,2278,2274,2272,2271,2269,2268,2264,2263,2260,2261,2260,2261,2262,2263,2264,2263,2262,2262,2261,2263,2262,2263,2267,2270,2270,2269,2270,2274,2275,2277,2282,2285,2285,2285,2284,2288,2287,2288,2288,2289,2291,2292,2296,2298,2301,2301,2301,2301,2302,2301,2300,2301,2306,2306,2306,2309,2313,2317,2317,2316,2316,2320,2319,2320,2319,2322,2324,2325,2326,2325,2325,2325,2327,2327,2330,2330,2330,2329,2327,2331,2334,2336,2335,2330,2331,2334,2338,2340,2343,2347,2348,2348,2350,2353,2359,2360,2359,2358,2359,2360,2356,2353,2357,2361,2363,2361,2362,2364,2363,2364,2363,2364,2365,2369,2370,2372,2370,2370,2371,2370,2372,2372,2375,2376,2376,2377,2381,2385,2388,2385,2386,2387,2394,2394,2398,2399,2404,2403,2403,2406,2411,2415,2415,2416,2418,2420,2419,2418,2418,2416,2416,2418,2420,2420,2418,2417,2413,2412,2409,2410,2408,2413,2409,2410,2410,2411,2411,2409,2412,2414,2418,2419,2417,2414,2415,2416,2418,2416,2417,2417,2419,2421,2423,2424,2424,2426,2429,2427,2433,2437,2446,2447,2452,2455,2456,0,0,0,0,0,0,0,0,0,0,0,0,0,0,0,0,0,0,0,0,0,0,0,0,0,0,0,0,0,0,0,0,0,0,0,0,0,0,0,0,0,1411,0,0,0,0,0,0,0,2461,2453,0,0,0,0,0,0,0,0,0,0,0,2354,2353,2369,2320,0,2311,2305,0,0,0,0,0,0,0,0,0,0,0,0,0,0,2179,2198,2207,2202,2196,2191,2187,2179,2140,0,0,2017,2005,1991,1979,0,0,0,0,0,0,0,0,0,0,0,0,0,0,0,0,0,0,0,0,0,0,0,0
0,0,0,0,0,0,0,0,1373,1395,1403,1410,1419,1427,1436,1469,1467,1473,1479,1482,1490,1489,1515,1524,1555,1542,1548,1548,1555,1572,1578,1588,1602,1610,1621,1634,1645,1649,1650,1659,1663,1680,1689,1705,0,0,0,0,0,0,1392,1392,1392,1401,1431,0,1706,1730,1746,1741,1741,1735,1736,1733,1740,1748,1750,1753,1753,1756,1756,1758,0,0,0,0,0,0,0,1439,1442,1441,1444,1446,1448,1446,1449,0,0,2276,2282,2285,2290,2293,2297,2303,2309,2309,2310,2310,2316,2319,2324,2326,2331,2336,2339,2340,2340,2343,2345,2349,2353,2355,2356,2357,2359,2359,2360,2360,2362,2364,2366,2367,2366,2368,2369,2367,2365,2364,2363,2360,2358,2356,2363,2367,2375,2380,2393,2400,2353,2292,2283,2293,2345,0,2421,2432,2442,2421,2394,2389,2395,2393,2381,2377,2376,2373,2369,2367,2360,2356,2357,2361,2360,2358,2357,2358,2358,2358,2361,2361,2360,2358,2355,2356,2353,2350,2345,2342,2338,2332,2326,2323,2320,2317,2313,2310,2304,2299,2291,2288,2287,2286,2283,2275,2272,2271,2269,2264,2262,2261,2262,2260,2261,2261,2261,2262,2261,2264,2263,2261,2260,2259,2262,2262,2264,2266,2270,2269,2266,2266,2270,2273,2276,2278,2281,2283,2282,2282,2285,2286,2289,2288,2290,2289,2290,2293,2297,2301,2302,2299,2300,2301,2304,2304,2306,2306,2307,2307,2311,2313,2316,2314,2313,2313,2316,2318,2320,2319,2320,2321,2323,2326,2327,2326,2324,2324,2327,2330,2331,2330,2329,2328,2331,2334,2338,2335,2332,2331,2336,2336,2338,2339,2345,2344,2343,2343,2349,2356,2359,2358,2358,2359,2359,2354,2351,2353,2356,2358,2357,2360,2364,2367,2366,2364,2360,2361,2366,2368,2369,2366,2367,2369,2370,2372,2372,2374,2376,2376,2377,2378,2381,2384,2382,2385,2387,2394,2392,2396,2399,2403,2403,2402,2408,2413,2416,2417,2417,2419,2416,2414,2414,2415,2414,2414,2415,2416,2414,2413,2412,2409,2407,2405,2408,2408,2411,2407,2406,2407,2409,2410,2409,2411,2414,2416,2417,2415,2413,2414,2413,2412,2412,2413,2415,2415,2418,2418,2418,2420,2421,2427,2425,2430,2438,2447,2449,2451,2453,2456,2454,0,0,0,0,0,0,0,0,0,0,0,0,0,0,0,0,0,0,0,0,0,0,0,0,0,0,0,0,0,0,0,0,0,0,0,0,0,0,0,0,0,0,0,0,0,0,2495,2454,2452,2447,0,0,0,0,0,0,0,0,0,0,2384,2395,2385,2357,0,2318,2311,2349,0,0,0,0,0,0,0,0,0,0,0,0,0,0,2195,2200,2207,2200,2195,2190,2187,2178,2137,0,0,2015,2001,1988,0,0,0,0,0,0,0,0,0,0,0,0,0,0,0,0,0,0,0,0,0,0,0,0,0
0,0,0,0,0,0,0,0,0,1383,1399,1412,1430,1435,1441,1452,1466,1456,1457,1476,1479,1496,1505,1524,1536,1550,1553,1559,1563,1571,1573,1587,1599,1609,1604,1632,1643,1647,1650,1655,1665,1682,1699,1714,0,0,0,0,0,0,1404,1399,1403,1412,1441,0,1710,1732,1749,1741,1735,1732,1732,1733,1738,1747,1749,1751,1752,1755,1756,1756,0,0,0,0,0,0,0,1442,1440,1440,1445,1449,1451,1447,1450,0,0,2277,2283,2284,2289,2294,2300,2304,2307,2307,2309,2308,2314,2317,2322,2325,2330,2334,2337,2340,2341,2343,2346,2350,2352,2353,2355,2357,2359,2360,2361,2361,2361,2363,2366,2368,2368,2367,2366,2364,2363,2360,2359,2356,2357,2361,2366,2368,2372,2380,2393,2394,2351,2290,2283,2290,0,0,2405,2420,2422,2413,2393,2383,2379,2376,2371,2369,2366,2364,2362,2359,2353,2351,2353,2357,2357,2355,2355,2355,2358,2358,2358,2355,2352,2351,2350,2349,2349,2347,2344,2338,2333,2329,2323,2319,2317,2315,2311,2307,2302,2300,2292,2288,2288,2286,2280,2273,2272,2273,2269,2261,2259,2258,2260,2259,2259,2258,2259,2261,2261,2263,2261,2260,2258,2257,2261,2259,2260,2263,2268,2269,2266,2268,2270,2273,2274,2278,2280,2283,2280,2281,2282,2284,2286,2288,2290,2292,2289,2290,2294,2299,2300,2298,2300,2302,2305,2305,2305,2303,2306,2309,2314,2313,2314,2314,2316,2317,2316,2314,2314,2316,2319,2321,2321,2321,2324,2325,2326,2324,2326,2327,2330,2330,2329,2326,2327,2330,2333,2330,2332,2332,2337,2334,2336,2336,2343,2341,2342,2342,2349,2354,2355,2355,2355,2354,2355,2353,2355,2353,2355,2355,2357,2359,2362,2365,2363,2360,2357,2361,2365,2366,2367,2366,2365,2368,2367,2370,2371,2373,2375,2375,2377,2377,2378,2380,2380,2383,2385,2392,2393,2396,2400,2401,2402,2402,2407,2413,2416,2419,2420,2419,2413,2410,2409,2413,2414,2414,2413,2411,2410,2410,2408,2406,2403,2404,2407,2409,2410,2405,2404,2406,2407,2408,2409,2410,2410,2411,2413,2412,2412,2411,2409,2409,2410,2412,2412,2412,2414,2414,2412,2417,2419,2425,2426,2434,2441,2446,2448,2452,2457,2457,2453,0,0,0,0,0,0,0,0,0,0,0,0,0,0,0,0,0,0,0,0,0,0,0,0,0,0,0,0,0,0,0,0,0,0,0,0,0,0,0,0,0,0,0,0,0,0,0,2443,2434,0,0,0,0,0,0,2439,0,0,0,2358,2368,0,0,2363,2336,2320,2326,2315,0,0,0,0,0,0,0,0,0,0,0,0,0,0,2212,2201,2205,2202,2200,2197,2191,2178,0,0,0,2002,1998,1985,0,0,0,0,0,0,0,0,0,0,0,0,0,0,0,0,0,0,0,0,0,0,0,0,0
0,0,0,0,0,0,0,0,0,1382,1397,1412,1430,1441,1444,1447,1456,1455,1453,1461,1483,1500,1518,1522,1529,1544,1561,1569,1569,1570,1569,1586,1605,1615,1615,1626,1634,1638,1643,1650,1663,1682,1707,1719,1769,0,0,0,0,0,1405,1401,1405,1416,1443,0,1709,1730,1741,1737,1734,1736,1740,1741,1742,1747,1748,1748,1749,1752,1756,1756,0,0,0,0,0,0,0,1448,1443,1441,1445,1448,1451,1450,1452,0,0,2283,2283,2282,2284,2290,2297,2302,2305,2303,2306,2307,2315,2319,2324,2325,2330,2333,2337,2340,2343,2344,2347,2350,2353,2354,2356,2357,2359,2360,2362,2362,2361,2362,2364,2368,2368,2367,2363,2363,2361,2358,2356,2357,2359,2363,2362,2362,2369,2380,2391,2389,2343,2289,2284,2291,2337,2406,2403,2396,2398,2389,2386,2380,2377,2374,2372,2370,2366,2359,2355,2351,2348,2348,2350,2352,2352,2352,2353,2353,2355,2355,2354,2351,2349,2349,2348,2348,2348,2343,2340,2334,2332,2329,2325,2319,2315,2311,2307,2301,2300,2299,2295,2288,2288,2285,2278,2273,2272,2273,2269,2263,2262,2261,2261,2260,2260,2261,2261,2260,2257,2258,2257,2257,2255,2256,2261,2260,2261,2261,2265,2267,2266,2268,2268,2269,2270,2274,2276,2278,2277,2280,2283,2285,2287,2288,2290,2291,2290,2289,2291,2295,2298,2296,2297,2298,2303,2305,2307,2304,2306,2308,2313,2314,2314,2313,2314,2316,2316,2313,2313,2317,2320,2320,2319,2320,2325,2326,2327,2326,2328,2327,2327,2329,2329,2329,2328,2328,2327,2327,2332,2335,2338,2334,2335,2337,2342,2341,2341,2340,2344,2348,2351,2352,2353,2351,2353,2353,2357,2354,2355,2354,2357,2358,2362,2365,2364,2361,2358,2361,2363,2364,2364,2366,2366,2366,2365,2366,2369,2372,2375,2377,2377,2377,2376,2378,2377,2381,2385,2392,2394,2396,2399,2400,2403,2404,2408,2410,2412,2416,2417,2417,2413,2412,2412,2413,2415,2413,2411,2408,2408,2407,2404,2402,2399,2401,2402,2404,2402,2400,2403,2404,2404,2403,2406,2407,2409,2408,2409,2407,2409,2409,2409,2408,2410,2410,2411,2412,2415,2413,2409,2412,2417,2423,2423,2429,2434,2440,2443,2447,2452,2454,2455,0,0,0,0,0,0,0,0,0,0,0,0,0,0,0,0,1414,0,0,0,0,0,0,0,0,0,0,0,0,0,0,0,0,0,2755,0,0,0,0,0,0,0,0,0,0,0,0,2433,2423,0,0,1362,0,1323,0,0,0,0,0,2356,0,0,0,2355,2363,2329,2315,0,0,0,0,0,0,0,0,0,0,0,0,0,0,0,2208,2191,2196,2199,2199,2196,2190,2173,2121,0,0,1998,1996,1987,0,0,0,0,0,0,0,0,0,0,0,0,0,0,0,0,0,0,0,0,0,0,0,0,0
0,0,0,0,0,0,0,0,0,1391,1403,1416,1431,1444,1449,1445,1453,1453,1462,1464,1480,1501,1516,1523,1523,1543,1564,1577,1570,1569,1568,1586,1606,1618,1619,1626,1632,1638,1648,1656,1668,1680,1698,1723,1760,0,0,0,0,0,1416,1406,1405,1413,1438,0,1707,1724,1736,1736,1736,1740,1746,1748,1746,1747,1749,1748,1749,1751,1754,1757,0,0,0,0,0,0,0,1443,1441,1443,1451,1452,1453,1452,1454,0,0,2286,2285,2283,2282,2286,2295,2301,2303,2303,2307,2308,2314,2318,2324,2325,2330,2333,2337,2342,2344,2345,2347,2349,2350,2352,2353,2357,2359,2363,2363,2361,2360,2361,2362,2366,2365,2364,2363,2363,2361,2356,2357,2358,2362,2361,2359,2362,2373,2386,2395,2393,2347,2289,2283,2292,2362,2413,2406,2396,2393,2383,2379,2374,2371,2368,2369,2368,2364,2355,2348,2346,2347,2348,2348,2347,2346,2347,2349,2351,2353,2355,2353,2348,2346,2348,2349,2348,2346,2340,2337,2330,2328,2325,2322,2318,2315,2310,2304,2296,2295,2296,2295,2291,2289,2286,2277,2274,2271,2274,2270,2268,2265,2263,2260,2257,2259,2261,2263,2261,2259,2257,2256,2256,2255,2256,2259,2259,2259,2260,2262,2264,2264,2268,2268,2268,2268,2273,2275,2275,2275,2280,2283,2284,2284,2286,2289,2293,2292,2293,2291,2295,2295,2297,2296,2298,2300,2302,2304,2304,2306,2308,2311,2314,2312,2310,2312,2315,2316,2311,2313,2317,2321,2320,2317,2317,2321,2324,2327,2328,2328,2326,2326,2327,2327,2327,2326,2325,2323,2323,2328,2331,2334,2332,2334,2335,2338,2340,2340,2341,2342,2346,2348,2349,2349,2348,2352,2354,2357,2355,2357,2356,2358,2357,2362,2362,2363,2359,2358,2358,2360,2361,2363,2367,2366,2366,2364,2365,2368,2371,2373,2375,2377,2378,2377,2376,2375,2377,2381,2387,2392,2396,2401,2404,2405,2407,2407,2408,2409,2413,2413,2413,2411,2413,2412,2413,2412,2411,2407,2406,2406,2405,2403,2402,2400,2401,2401,2402,2401,2402,2403,2402,2402,2402,2405,2404,2404,2402,2404,2403,2406,2408,2406,2407,2409,2412,2412,2413,2414,2416,2412,2415,2418,2420,2422,2427,2431,2434,2433,2441,2450,2459,2462,2463,0,0,0,0,0,0,0,0,0,0,1398,0,1456,0,0,0,0,0,0,0,0,0,0,1432,0,0,0,0,0,0,0,0,0,0,0,0,0,0,0,1440,0,0,0,0,0,0,2444,2446,0,0,1348,0,0,0,0,0,2410,2405,0,0,0,0,2391,2370,2356,2309,0,0,2269,2249,2249,0,0,0,0,0,0,0,0,0,0,2195,2191,2181,2191,2193,2193,2188,2175,0,0,0,1990,1999,1994,0,0,0,0,0,0,0,0,0,0,0,0,0,0,0,0,0,0,0,0,0,0,0,0,0
0,0,0,0,0,0,0,0,0,1393,1406,1416,1427,1437,1446,1443,1455,1464,1467,1470,1481,1490,1504,1514,1527,1543,1562,1569,1564,1565,1576,1590,1603,1612,1619,1630,1634,1643,1650,1662,1666,1677,1695,1711,0,1766,0,0,0,0,1421,1400,1396,1406,1433,0,1705,1722,1732,1732,1734,1740,1750,1750,1748,1749,1751,1751,1751,1752,1756,1761,1770,0,0,1932,0,0,0,1441,1444,1445,1452,1454,1455,1456,1456,0,0,2284,2284,2282,2281,2285,2295,2300,2303,2303,2310,2312,2316,2318,2324,2325,2331,2334,2338,2342,2345,2346,2347,2348,2351,2352,2355,2358,2360,2361,2362,2360,2359,2359,2361,2364,2364,2364,2365,2365,2364,2362,2364,2363,2364,2361,2359,2362,2372,2385,2393,2395,2352,2287,2282,2292,2358,2407,2400,2396,2393,2384,2377,2373,2374,2371,2368,2364,2360,2353,2348,2347,2349,2349,2349,2346,2344,2344,2346,2349,2350,2351,2350,2350,2348,2350,2348,2347,2344,2339,2335,2329,2330,2327,2324,2319,2314,2310,2303,2295,2294,2294,2295,2291,2288,2283,2279,2275,2272,2272,2268,2268,2266,2265,2260,2257,2259,2263,2265,2259,2256,2254,2258,2257,2256,2254,2258,2258,2260,2260,2261,2262,2263,2266,2266,2266,2266,2267,2270,2273,2276,2280,2283,2283,2282,2283,2285,2290,2291,2293,2291,2293,2293,2295,2295,2295,2297,2299,2302,2302,2304,2305,2309,2313,2313,2312,2312,2314,2315,2312,2314,2316,2320,2318,2316,2317,2321,2321,2323,2325,2327,2327,2324,2324,2323,2324,2325,2325,2322,2323,2326,2329,2329,2330,2331,2334,2333,2335,2336,2340,2341,2342,2344,2347,2348,2345,2349,2351,2354,2353,2356,2356,2358,2357,2361,2361,2364,2362,2360,2358,2359,2361,2361,2364,2363,2364,2362,2364,2367,2369,2371,2375,2377,2379,2378,2377,2376,2378,2385,2389,2394,2398,2403,2407,2407,2407,2406,2406,2407,2409,2410,2413,2413,2415,2413,2412,2410,2409,2407,2406,2405,2402,2401,2403,2404,2403,2399,2399,2399,2401,2402,2400,2400,2401,2403,2402,2404,2403,2404,2402,2402,2406,2406,2408,2408,2409,2409,2411,2413,2416,2416,2417,2417,2418,2419,2423,2430,2434,2434,2435,2442,2455,2463,2466,0,0,0,0,0,0,0,0,0,0,0,0,0,0,0,0,0,0,0,0,0,0,0,0,0,0,0,0,0,0,0,0,0,0,0,0,0,0,0,0,0,0,0,0,0,0,2456,2454,0,0,0,0,0,0,0,0,0,0,2391,0,0,0,2369,0,2350,2313,0,2290,2267,2260,2244,0,0,0,0,0,0,0,0,0,0,2191,2192,2189,2192,2190,2188,2183,2172,0,0,0,2006,2004,1998,0,0,0,0,0,0,0,0,0,0,0,0,0,0,0,0,0,0,0,0,0,0,0,0,0
0,0,0,0,0,0,0,0,0,1395,1411,1418,1418,1423,1433,1447,1463,1459,1464,1466,1481,1489,1492,1505,1527,1545,1555,1558,1559,1564,1584,1594,1598,1609,1621,1632,1639,1642,1650,1662,1669,1677,1697,1706,1717,1787,0,0,0,0,1390,1399,1395,1406,1442,0,1698,1725,1736,1733,1735,1742,1750,1750,1747,1747,1750,1754,1754,1755,1756,1760,0,0,0,0,1924,0,0,1448,1445,1447,1453,1456,1456,1455,1455,0,0,2277,2279,2281,2283,2289,2297,2302,2305,2307,2312,2314,2318,2320,2324,2326,2331,2335,2339,2343,2345,2347,2347,2348,2350,2352,2355,2358,2360,2360,2361,2361,2359,2359,2362,2363,2364,2363,2364,2364,2364,2365,2365,2361,2359,2358,2359,2366,2373,2384,2390,2393,2348,2289,2284,2297,2354,2395,2393,2392,2389,2382,2375,2371,2368,2366,2361,2358,2354,2350,2347,2345,2347,2347,2346,2344,2343,2343,2343,2346,2346,2349,2349,2350,2348,2347,2345,2345,2342,2338,2332,2328,2327,2325,2319,2316,2312,2310,2302,2294,2292,2292,2293,2291,2286,2282,2279,2277,2275,2274,2269,2268,2265,2265,2262,2259,2260,2262,2263,2257,2255,2255,2259,2259,2259,2257,2260,2259,2261,2261,2262,2263,2263,2266,2268,2269,2265,2265,2269,2275,2277,2278,2278,2279,2279,2282,2285,2289,2290,2292,2291,2291,2291,2294,2295,2297,2298,2301,2304,2304,2306,2305,2307,2310,2311,2312,2313,2315,2315,2313,2314,2314,2317,2316,2315,2315,2318,2319,2320,2320,2321,2321,2321,2320,2320,2322,2324,2325,2325,2325,2327,2326,2327,2328,2329,2331,2331,2334,2338,2343,2342,2341,2341,2345,2345,2343,2348,2351,2354,2351,2353,2354,2358,2357,2359,2355,2359,2360,2362,2361,2360,2361,2362,2362,2361,2363,2363,2368,2367,2369,2368,2370,2373,2375,2374,2374,2375,2379,2386,2392,2398,2402,2405,2407,2407,2407,2406,2408,2408,2410,2409,2413,2411,2414,2411,2412,2408,2407,2406,2404,2403,2399,2399,2401,2404,2404,2401,2400,2401,2402,2402,2401,2401,2402,2404,2401,2402,2403,2406,2404,2401,2404,2403,2406,2408,2411,2410,2409,2411,2417,2418,2419,2417,2417,2420,2426,2433,2437,2435,2436,2438,2450,2457,2461,0,0,0,0,0,0,0,0,0,0,0,0,0,0,0,0,0,0,0,0,0,0,0,0,0,2769,0,0,0,0,0,0,0,0,0,0,0,0,0,0,0,0,0,0,0,0,2465,2462,0,0,0,0,0,0,0,0,0,0,2384,2360,2390,2349,2348,2338,2355,2295,0,0,2278,2267,2264,0,0,0,0,0,0,0,0,0,0,2189,2191,2195,2194,2192,2191,2186,2171,0,0,0,2006,2003,1996,1969,0,0,0,0,0,0,0,0,0,0,0,0,0,0,0,0,0,0,0,0,0,0,0,0
0,0,0,0,0,0,0,0,1371,1393,1407,1405,1407,1403,1421,1445,1458,1451,1449,1465,1473,1488,1501,1513,1530,1541,1557,1565,1568,1569,1589,1596,1602,1611,1624,1635,1642,1645,1646,1655,1664,1676,1690,1704,1712,1719,1760,0,0,0,1396,1397,1397,1406,1445,0,1704,1730,1738,1734,1736,1740,1749,1751,1749,1749,1751,1756,1756,1757,1757,1760,0,0,0,1960,1919,0,0,1450,1450,1449,1451,1456,1456,1455,1455,0,0,2274,2275,2280,2285,2293,2300,2304,2306,2307,2312,2315,2319,2319,2324,2325,2330,2333,2337,2342,2345,2348,2348,2349,2351,2354,2358,2358,2359,2358,2360,2360,2360,2360,2365,2366,2366,2363,2361,2363,2366,2368,2364,2361,2358,2358,2357,2364,2371,2379,2386,2388,2347,2296,2289,2305,2358,2392,2387,2389,2383,2376,2370,2369,2365,2360,2355,2352,2351,2351,2351,2348,2345,2343,2343,2344,2344,2344,2341,2343,2345,2345,2345,2345,2346,2346,2341,2341,2339,2337,2331,2328,2326,2323,2320,2318,2315,2310,2303,2297,2294,2292,2292,2289,2286,2282,2279,2276,2274,2272,2268,2266,2264,2265,2262,2261,2263,2264,2262,2257,2255,2256,2259,2260,2260,2257,2259,2259,2262,2262,2263,2264,2263,2265,2264,2267,2266,2266,2267,2273,2276,2275,2275,2277,2280,2282,2283,2285,2285,2288,2289,2290,2290,2291,2295,2296,2298,2301,2304,2303,2304,2306,2308,2311,2313,2315,2315,2316,2316,2313,2313,2313,2317,2317,2316,2315,2317,2317,2317,2316,2316,2318,2320,2322,2320,2321,2324,2325,2326,2327,2328,2328,2328,2329,2330,2331,2331,2332,2336,2340,2340,2339,2340,2345,2344,2342,2345,2348,2352,2351,2352,2352,2354,2356,2357,2354,2354,2357,2359,2362,2362,2363,2362,2360,2359,2361,2364,2368,2368,2367,2366,2366,2369,2372,2374,2375,2377,2381,2389,2395,2398,2400,2402,2403,2404,2404,2404,2406,2407,2407,2405,2407,2407,2410,2409,2410,2406,2406,2405,2404,2401,2397,2395,2394,2398,2400,2398,2397,2397,2398,2402,2402,2402,2399,2401,2399,2403,2404,2405,2403,2400,2401,2404,2406,2407,2407,2406,2407,2411,2415,2416,2415,2416,2417,2419,2424,2432,2436,2438,2436,2437,2444,2448,2451,0,0,0,0,0,0,0,0,0,0,0,0,0,0,0,0,0,0,0,0,0,0,1483,0,0,0,0,0,0,0,0,0,0,0,0,0,0,0,0,0,0,0,0,0,0,0,0,2459,0,0,0,0,0,0,0,0,0,0,2368,2371,2345,2341,2315,2348,2332,2306,0,2312,2270,2282,0,0,0,0,0,0,0,0,0,0,0,2207,2202,2200,2197,2197,2194,2189,2168,0,0,0,2004,2002,1996,1974,0,0,0,0,0,0,0,0,0,0,0,0,0,0,0,0,0,0,0,0,0,0,0,0
0,0,0,0,0,0,0,0,1395,1397,1401,1401,1397,1409,1417,1431,1447,1450,1454,1466,1492,1514,1527,1530,1541,1551,1566,1575,1579,1583,1585,1601,1601,1615,1627,1636,1641,1643,1646,1650,1670,1688,1701,1705,1712,1720,1736,0,0,0,1400,1398,1401,1412,1448,0,1708,1729,1733,1738,1742,1744,1747,1747,1746,1747,1750,1757,1757,1757,1753,1756,0,0,0,1906,0,0,0,1453,1451,1452,1451,1456,1457,1456,1457,0,0,2271,2274,2280,2282,2289,2295,2301,2303,2303,2308,2311,2317,2321,2326,2327,2329,2333,2337,2343,2345,2348,2349,2350,2352,2355,2357,2357,2357,2358,2361,2362,2362,2361,2363,2363,2364,2363,2361,2359,2360,2362,2361,2362,2361,2359,2357,2364,2375,2383,2388,2387,2344,2295,2292,2314,2370,2395,2388,2386,2380,2371,2366,2366,2361,2358,2355,2353,2352,2353,2353,2349,2345,2344,2343,2343,2342,2340,2340,2341,2345,2344,2344,2342,2343,2342,2339,2339,2336,2335,2331,2330,2323,2320,2317,2318,2316,2311,2305,2297,2294,2289,2289,2286,2287,2284,2281,2278,2275,2274,2271,2269,2266,2264,2262,2261,2260,2260,2259,2259,2256,2257,2258,2260,2259,2256,2257,2259,2263,2262,2260,2261,2261,2265,2264,2267,2267,2269,2269,2274,2274,2275,2274,2277,2280,2282,2283,2285,2284,2287,2288,2290,2288,2290,2293,2298,2301,2304,2305,2305,2303,2305,2306,2310,2311,2313,2313,2315,2315,2316,2317,2317,2318,2316,2316,2315,2317,2319,2320,2318,2315,2316,2319,2323,2323,2325,2325,2325,2326,2327,2328,2328,2329,2328,2327,2329,2330,2331,2334,2338,2340,2341,2342,2343,2342,2343,2345,2347,2348,2350,2352,2352,2354,2354,2356,2352,2351,2352,2355,2356,2359,2359,2362,2360,2362,2362,2364,2365,2365,2363,2364,2363,2368,2368,2372,2375,2380,2384,2389,2393,2396,2398,2399,2401,2402,2403,2401,2404,2404,2406,2404,2403,2403,2406,2405,2405,2403,2404,2404,2402,2401,2397,2395,2392,2392,2393,2395,2396,2394,2395,2398,2402,2401,2397,2398,2397,2400,2401,2403,2401,2400,2399,2401,2403,2405,2406,2404,2406,2408,2412,2412,2414,2414,2416,2417,2422,2429,2433,2434,2435,2440,2448,2451,2450,0,0,0,0,0,0,0,0,0,0,0,0,0,0,0,0,0,0,0,0,0,0,1459,0,0,0,0,0,0,0,0,0,0,0,0,0,0,0,1481,0,0,0,0,0,0,0,2459,2466,0,0,0,0,0,0,0,0,0,0,2386,2386,2355,0,0,2330,0,2313,2309,2282,2290,0,0,0,0,0,0,0,0,0,0,0,0,2206,2205,2199,2197,2200,2197,2188,2163,0,0,0,2013,2000,1994,1975,0,0,0,0,0,0,0,0,0,0,0,0,0,0,0,0,0,0,0,0,0,0,0,0
0,0,0,0,0,0,0,0,1384,1393,1399,1399,1406,1414,1432,1437,1445,1452,1464,1477,1493,1514,1528,1536,1547,1559,1566,1582,1587,1593,1595,1597,1605,1614,1626,1631,1638,1642,1651,1658,1673,1696,1704,1705,1702,1719,1733,1745,0,0,1419,1393,1400,1411,1447,0,1713,1733,1735,1742,1745,1747,1746,1747,1746,1746,1751,1756,1757,1755,1755,1758,0,0,0,0,1864,0,0,1449,1448,1448,1449,1452,1455,1457,1462,0,0,2269,2275,2280,2281,2287,2292,2296,2301,2301,2309,2308,2314,2317,2323,2326,2329,2334,2338,2343,2345,2347,2349,2350,2352,2354,2356,2357,2357,2358,2360,2361,2364,2364,2365,2362,2360,2361,2359,2356,2357,2359,2361,2361,2362,2358,2360,2366,2376,2383,2384,2384,2339,2292,2293,2322,2374,2397,2390,2385,2378,2368,2364,2362,2359,2358,2357,2353,2352,2353,2354,2351,2347,2346,2343,2341,2341,2341,2342,2341,2343,2341,2340,2339,2341,2342,2339,2339,2335,2336,2333,2330,2325,2319,2319,2317,2317,2310,2308,2303,2300,2290,2285,2283,2287,2285,2283,2279,2276,2271,2269,2267,2265,2263,2262,2262,2261,2259,2258,2259,2258,2258,2261,2260,2260,2254,2256,2258,2261,2261,2259,2260,2259,2262,2263,2265,2267,2268,2270,2272,2273,2274,2276,2279,2281,2281,2282,2283,2284,2286,2288,2290,2289,2292,2295,2299,2301,2301,2301,2302,2302,2304,2307,2310,2311,2313,2313,2314,2316,2318,2318,2318,2319,2318,2316,2315,2317,2319,2320,2318,2317,2317,2319,2321,2323,2323,2323,2323,2326,2327,2326,2325,2326,2326,2327,2329,2329,2328,2330,2335,2340,2343,2343,2345,2345,2344,2342,2343,2344,2347,2351,2354,2354,2354,2354,2353,2353,2353,2355,2356,2359,2360,2362,2362,2365,2363,2363,2363,2363,2362,2364,2364,2369,2368,2375,2378,2383,2381,2384,2389,2394,2397,2397,2399,2401,2401,2400,2399,2402,2404,2404,2401,2401,2402,2403,2402,2399,2400,2400,2399,2398,2394,2393,2392,2391,2390,2392,2396,2394,2394,2396,2400,2399,2397,2395,2396,2397,2396,2399,2400,2401,2398,2400,2402,2404,2403,2403,2407,2409,2411,2413,2415,2415,2416,2421,2426,2431,2430,2434,2433,2439,2445,2449,2453,2442,0,0,0,0,0,0,0,0,0,0,0,0,0,0,0,0,0,0,0,0,0,0,0,0,0,0,0,0,0,0,0,0,0,0,0,0,0,0,0,0,0,0,0,1351,2485,2448,2441,0,0,0,0,0,0,0,0,0,0,2386,0,0,0,0,2331,0,0,0,2282,0,0,0,0,0,0,0,0,0,0,0,0,0,2206,2207,2202,2202,2201,2195,2184,2163,0,0,0,2004,2000,1992,0,0,0,0,0,0,0,0,0,0,0,0,0,0,0,0,0,0,0,0,0,0,0,0,0
0,0,0,0,0,0,0,0,0,1400,1400,1399,1418,1425,1434,1444,1447,1454,1480,1499,1503,1499,1514,1528,1549,1547,1557,1577,1583,1587,1589,1594,1601,1611,1621,1622,1629,1636,1645,1664,1675,1698,1706,1716,1715,1728,1751,0,0,0,1391,1394,1401,1417,1457,0,1709,1737,1738,1743,1747,1751,1748,1748,1748,1747,1751,1754,1756,1755,1756,1758,0,0,0,1868,1855,0,0,1455,1451,1450,1450,1453,1455,1458,1462,0,0,2269,2275,2281,2284,2289,2290,2293,2300,2302,2310,2311,2315,2317,2322,2327,2331,2336,2339,2343,2345,2348,2350,2351,2352,2353,2355,2357,2358,2357,2359,2360,2363,2362,2361,2361,2361,2364,2362,2358,2360,2363,2368,2366,2364,2360,2360,2361,2370,2377,2383,2380,2333,2287,2289,2323,2380,2401,2394,2384,2377,2370,2364,2360,2360,2361,2360,2356,2356,2355,2353,2348,2344,2344,2341,2339,2338,2341,2343,2342,2342,2339,2339,2339,2341,2342,2342,2341,2338,2335,2331,2329,2326,2323,2319,2316,2315,2311,2308,2305,2301,2291,2286,2285,2287,2283,2281,2280,2275,2271,2268,2266,2263,2259,2259,2258,2257,2257,2257,2258,2259,2258,2261,2260,2260,2256,2257,2259,2261,2259,2258,2258,2260,2262,2264,2265,2266,2268,2270,2271,2272,2273,2274,2277,2279,2281,2282,2285,2289,2289,2289,2288,2290,2293,2293,2297,2298,2300,2300,2303,2303,2303,2306,2308,2311,2311,2312,2313,2316,2318,2319,2319,2320,2319,2317,2316,2318,2320,2322,2321,2319,2319,2318,2318,2321,2322,2321,2318,2322,2324,2326,2325,2326,2326,2327,2329,2331,2331,2331,2335,2338,2340,2339,2341,2343,2342,2343,2345,2346,2347,2347,2350,2353,2353,2352,2352,2355,2357,2359,2360,2360,2361,2362,2363,2366,2366,2367,2365,2365,2363,2364,2366,2369,2369,2372,2376,2380,2380,2382,2388,2393,2396,2396,2399,2401,2402,2401,2399,2400,2402,2405,2404,2404,2402,2402,2400,2401,2399,2400,2398,2398,2395,2395,2394,2392,2390,2393,2395,2396,2395,2395,2398,2396,2396,2394,2394,2396,2397,2402,2400,2402,2400,2402,2403,2405,2405,2406,2408,2409,2408,2413,2415,2417,2416,2422,2427,2431,2429,2433,2435,2440,2446,2451,2457,2459,0,0,0,0,0,0,0,0,0,0,0,0,0,0,0,0,0,0,0,0,0,0,0,0,0,0,0,0,0,0,0,0,0,0,0,0,0,0,0,0,0,1367,0,0,2455,2462,2454,0,0,0,0,0,0,0,0,0,0,2369,2346,0,2303,0,0,0,0,0,0,0,0,0,0,0,0,0,0,0,0,0,0,2177,2197,2200,2202,2203,2203,2196,2186,2170,0,0,0,2002,1996,1992,0,0,0,0,0,0,0,0,0,0,0,0,0,0,0,0,0,0,0,0,0,0,0,0,0
0,0,0,0,0,0,0,0,0,1407,1407,1413,1415,1426,1438,1447,1448,1445,1477,1504,1504,1501,1508,1517,1523,1537,1550,1572,1577,1580,1585,1594,1605,1608,1616,1622,1634,1646,1657,1667,1672,1682,1693,1707,1711,1719,1717,0,0,0,1401,1396,1404,1420,1465,0,1703,1736,1746,1743,1745,1748,1747,1750,1749,1749,1752,1752,1754,1754,1757,1760,0,0,0,1875,0,0,0,1460,1455,1453,1456,1456,1456,1456,1460,0,0,2266,2275,2284,2290,2290,2290,2293,2301,2303,2311,2312,2315,2315,2319,2326,2330,2334,2337,2343,2346,2348,2349,2351,2353,2352,2353,2355,2357,2357,2358,2359,2361,2361,2361,2361,2363,2363,2362,2360,2368,2372,2373,2367,2362,2355,2353,2353,2361,2372,2380,2376,2329,2284,2286,2318,2380,2400,2394,2386,2379,2373,2368,2361,2360,2359,2360,2357,2355,2351,2350,2345,2343,2341,2339,2338,2340,2342,2344,2342,2341,2339,2339,2341,2341,2343,2345,2345,2343,2337,2332,2328,2328,2326,2322,2317,2314,2308,2307,2307,2306,2298,2291,2290,2290,2286,2281,2278,2274,2271,2268,2266,2263,2261,2262,2260,2259,2258,2258,2257,2258,2257,2260,2260,2262,2259,2260,2258,2258,2257,2260,2260,2262,2261,2262,2262,2265,2268,2272,2271,2272,2272,2274,2276,2280,2282,2284,2286,2289,2288,2290,2289,2291,2290,2293,2296,2297,2297,2298,2302,2303,2304,2307,2310,2312,2312,2312,2314,2315,2316,2316,2316,2317,2317,2318,2317,2317,2317,2319,2318,2317,2317,2316,2317,2320,2322,2320,2319,2322,2326,2325,2326,2325,2325,2326,2330,2333,2334,2332,2333,2335,2337,2338,2341,2344,2341,2342,2343,2347,2349,2348,2350,2350,2354,2353,2356,2356,2360,2361,2364,2362,2361,2360,2362,2363,2364,2366,2367,2367,2364,2361,2362,2366,2370,2372,2375,2378,2380,2384,2389,2392,2395,2396,2398,2401,2400,2401,2398,2399,2399,2402,2402,2402,2401,2404,2403,2401,2396,2396,2396,2399,2396,2394,2390,2391,2390,2392,2391,2394,2393,2395,2392,2392,2392,2391,2392,2394,2398,2401,2400,2403,2403,2404,2403,2404,2404,2407,2408,2409,2407,2412,2414,2418,2418,2425,2426,2429,2426,2431,2432,2437,2437,2441,2449,2456,0,0,0,0,0,0,0,0,0,0,0,0,0,0,0,0,1493,0,0,0,0,0,0,0,0,0,0,0,0,0,0,0,0,0,0,0,0,0,0,0,1349,0,0,0,0,2469,2464,0,0,0,0,0,0,0,0,0,0,0,2323,2334,2346,0,2334,2303,0,0,0,0,0,0,0,0,0,0,0,0,0,0,0,0,2193,2197,2203,2202,2203,2196,2190,2176,0,0,0,1997,1994,1989,0,0,0,0,0,0,0,0,0,0,0,0,0,0,0,0,0,0,0,0,0,0,0,0,0
0,0,0,0,0,0,0,0,0,1392,1407,1409,1415,1429,1450,1453,1448,1444,1449,1499,1514,1504,1509,1514,1518,1529,1552,1570,1567,1576,1584,1591,1599,1607,1621,1628,1639,1648,1654,1664,1664,1673,1680,1688,1690,1687,1671,1658,0,0,1413,1402,1409,1425,1467,0,1685,1729,1738,1738,1739,1742,1742,1747,1751,1753,1753,1754,1755,1756,1757,1760,0,0,2054,1869,0,0,0,1475,1465,1463,1461,1462,1458,1456,1457,0,0,2267,2278,2287,2293,2288,2288,2287,2297,2302,2310,2312,2314,2317,2322,2327,2330,2334,2338,2341,2344,2345,2348,2350,2353,2353,2354,2356,2359,2358,2360,2361,2361,2359,2361,2362,2364,2361,2360,2361,2370,2374,2370,2370,2363,2358,2352,2353,2362,2370,2379,2371,2325,2285,2290,2331,2385,2400,2397,2391,2386,2379,2371,2365,2361,2360,2359,2358,2357,2351,2349,2344,2344,2342,2342,2340,2339,2337,2340,2340,2343,2340,2340,2339,2339,2343,2345,2344,2342,2338,2336,2330,2328,2327,2324,2321,2317,2312,2307,2305,2304,2297,2294,2292,2291,2286,2279,2277,2273,2276,2274,2271,2268,2265,2262,2258,2256,2258,2258,2258,2258,2259,2258,2258,2260,2260,2261,2259,2258,2257,2258,2260,2264,2265,2264,2264,2265,2269,2271,2273,2272,2273,2275,2278,2279,2281,2285,2287,2289,2287,2289,2290,2293,2293,2293,2296,2298,2300,2300,2302,2301,2303,2306,2310,2313,2313,2315,2315,2315,2313,2314,2315,2317,2318,2320,2319,2318,2316,2317,2318,2318,2321,2317,2319,2320,2323,2321,2318,2316,2322,2324,2327,2323,2325,2325,2331,2333,2335,2329,2330,2331,2336,2336,2339,2341,2341,2342,2344,2347,2348,2345,2347,2349,2354,2353,2353,2354,2357,2360,2361,2359,2358,2359,2361,2362,2363,2366,2367,2367,2363,2360,2362,2368,2371,2370,2373,2377,2381,2384,2388,2391,2393,2394,2396,2399,2399,2400,2400,2399,2399,2401,2402,2401,2400,2402,2402,2401,2397,2397,2396,2398,2395,2393,2389,2390,2391,2391,2390,2393,2392,2392,2389,2390,2391,2393,2393,2397,2399,2402,2399,2402,2401,2403,2400,2405,2405,2408,2406,2408,2404,2408,2410,2416,2416,2420,2422,2425,2423,2427,2430,2437,2436,2439,2447,2459,0,0,0,0,0,0,0,0,0,0,0,1363,0,0,0,0,1477,0,0,0,1490,0,0,0,0,0,0,0,0,0,0,0,0,0,0,0,0,0,0,0,0,0,0,0,2458,2471,2467,0,0,0,0,0,0,0,0,0,0,2347,2333,2328,2364,2357,0,2341,0,2285,0,0,0,0,0,0,0,0,0,0,0,0,0,0,2183,2194,2203,2204,2205,2199,2189,2169,0,0,0,2008,1993,1981,0,0,0,0,0,0,0,0,0,0,0,0,0,0,0,0,0,0,0,0,0,0,0,0,0
0,0,0,0,0,0,0,0,0,1386,1391,1400,1413,1429,1452,1465,1453,1442,1457,1479,1497,1507,1519,1512,1514,1529,1553,1568,1566,1578,1584,1586,1595,1612,1629,1636,1643,1646,1653,1656,1658,1659,1661,1665,1667,1665,1656,1649,1639,0,1422,1406,1405,1421,1458,0,1696,1724,1737,1735,1742,1743,1742,1745,1747,1751,1752,1755,1756,1758,1757,1761,0,0,0,1865,0,0,0,1479,1467,1462,1461,1463,1462,1459,1459,0,0,2269,2281,2289,2290,2283,2286,2286,2295,2300,2308,2310,2312,2317,2323,2328,2331,2335,2340,2341,2343,2344,2347,2350,2352,2351,2352,2355,2359,2359,2361,2361,2361,2360,2361,2360,2361,2357,2358,2359,2368,2369,2364,2363,2359,2356,2355,2361,2368,2375,2376,2369,2325,2288,2297,2340,2390,2399,2399,2396,2392,2383,2374,2368,2362,2359,2357,2356,2355,2349,2349,2344,2347,2346,2344,2340,2338,2337,2339,2339,2342,2341,2343,2342,2341,2342,2343,2343,2340,2338,2339,2334,2329,2323,2324,2322,2320,2313,2308,2303,2304,2298,2295,2292,2293,2291,2283,2279,2275,2278,2276,2272,2269,2268,2265,2263,2261,2260,2258,2258,2256,2258,2257,2257,2258,2258,2260,2258,2259,2259,2258,2259,2261,2264,2265,2267,2266,2269,2270,2272,2272,2274,2277,2281,2283,2284,2287,2287,2288,2286,2287,2290,2292,2292,2294,2297,2300,2301,2301,2302,2302,2304,2304,2306,2307,2309,2311,2314,2314,2313,2312,2312,2312,2314,2318,2318,2318,2317,2317,2316,2315,2317,2318,2320,2323,2324,2323,2322,2318,2321,2322,2324,2321,2322,2323,2327,2329,2332,2329,2331,2332,2336,2335,2338,2340,2341,2342,2342,2343,2343,2342,2347,2349,2354,2351,2351,2351,2352,2356,2356,2357,2356,2358,2361,2363,2362,2363,2365,2364,2360,2359,2364,2368,2371,2371,2371,2375,2379,2382,2386,2390,2392,2391,2390,2393,2395,2398,2398,2398,2398,2397,2398,2397,2399,2400,2401,2397,2394,2392,2393,2394,2393,2391,2389,2389,2389,2389,2389,2391,2389,2389,2387,2389,2389,2393,2394,2397,2396,2397,2396,2399,2398,2398,2398,2402,2403,2405,2405,2406,2407,2409,2411,2413,2416,2420,2423,2424,2425,2429,2433,2438,2439,2444,2451,2458,0,0,0,0,0,0,0,1504,0,0,0,0,0,0,0,0,0,1453,0,0,0,1467,0,1473,0,0,0,0,0,0,0,0,0,0,0,0,0,0,0,0,0,0,1382,1348,2445,2452,2452,0,0,0,0,0,0,0,0,0,0,2381,2322,2320,0,0,2362,0,2306,2293,0,0,0,0,0,0,0,0,0,0,0,0,0,0,2189,2203,2205,2207,2207,2202,2184,2158,0,0,0,1999,1983,0,0,0,0,0,0,0,0,0,0,0,0,0,0,0,0,0,0,0,0,0,0,0,0,0,0
0,0,0,0,0,0,0,0,0,1391,1389,1396,1405,1415,1431,1464,1451,1449,1477,1487,1495,1505,1507,1507,1513,1528,1555,1570,1570,1577,1576,1585,1595,1613,1631,1634,1637,1636,1641,1646,1648,1653,1656,1657,1655,1655,1652,1645,1634,1610,1443,1407,1401,1415,1462,0,1712,1725,1731,1738,1745,1745,1744,1746,1746,1750,1752,1756,1760,1759,1759,1761,0,0,0,1865,0,0,0,1481,1469,1461,1458,1464,1463,1461,1461,0,0,2271,2280,2289,2292,2288,2286,2284,2292,2299,2307,2309,2313,2318,2324,2327,2331,2334,2339,2339,2342,2344,2348,2350,2352,2352,2354,2356,2358,2358,2358,2358,2358,2358,2361,2359,2357,2354,2357,2359,2362,2363,2359,2359,2358,2359,2362,2367,2373,2369,2367,2359,2326,2289,2298,2343,2393,2397,2398,2395,2393,2379,2370,2364,2361,2356,2355,2354,2356,2353,2351,2346,2347,2346,2344,2340,2336,2334,2335,2335,2338,2339,2341,2339,2337,2339,2339,2341,2338,2338,2338,2333,2327,2320,2321,2319,2319,2315,2310,2304,2301,2296,2295,2294,2294,2290,2281,2278,2275,2276,2275,2269,2266,2261,2259,2258,2259,2260,2257,2256,2255,2256,2257,2255,2255,2256,2259,2260,2259,2259,2258,2258,2260,2263,2268,2269,2268,2269,2268,2270,2271,2274,2276,2279,2281,2283,2284,2284,2285,2283,2286,2289,2291,2292,2294,2297,2300,2301,2300,2301,2303,2306,2305,2305,2304,2306,2309,2310,2310,2310,2313,2315,2315,2315,2318,2317,2318,2315,2316,2317,2318,2320,2319,2317,2318,2319,2320,2320,2317,2320,2322,2323,2321,2321,2321,2325,2326,2331,2328,2329,2328,2332,2332,2336,2339,2343,2344,2345,2343,2340,2340,2344,2347,2349,2347,2347,2351,2353,2355,2353,2356,2356,2358,2359,2362,2362,2365,2365,2364,2362,2365,2369,2371,2371,2371,2370,2373,2376,2380,2385,2390,2391,2390,2389,2391,2393,2394,2394,2396,2399,2398,2398,2398,2398,2396,2395,2393,2392,2391,2391,2391,2391,2391,2391,2390,2389,2390,2390,2392,2388,2386,2386,2389,2390,2392,2392,2395,2393,2395,2393,2396,2394,2397,2398,2400,2403,2403,2405,2405,2406,2408,2410,2410,2412,2416,2420,2422,2424,2428,2433,2440,2443,2448,2452,2458,0,0,0,0,0,0,0,0,0,0,0,0,0,0,0,0,0,0,0,0,0,0,0,0,0,0,0,0,0,0,0,0,0,0,0,0,0,0,1423,0,0,0,1386,0,0,0,2419,0,0,0,0,0,0,0,0,0,0,0,0,2323,0,2278,0,0,0,2295,0,0,0,0,0,0,0,0,0,0,0,0,0,0,2198,2210,2209,2209,2207,2200,2181,2151,0,0,0,0,0,0,0,0,0,0,0,0,0,0,0,0,0,0,0,0,0,0,0,0,0,0,0,0,0,0,0
0,0,0,0,0,0,0,0,0,1398,1400,1400,1400,1409,1421,1445,1448,1460,1480,1500,1492,1501,1512,1516,1527,1549,1558,1566,1568,1575,1581,1591,1599,1611,1625,1630,1631,1629,1637,1643,1645,1645,1647,1648,1648,1644,1642,1635,1633,1612,1446,1407,1398,1416,0,0,1711,1717,1729,1742,1754,1754,1749,1746,1744,1748,1749,1754,1759,1762,1760,1764,0,0,0,1863,0,0,0,1478,1469,1460,1459,1462,1464,1464,1466,0,2256,2267,2274,2286,2288,2290,2289,2290,2296,2302,2307,2310,2311,2315,2318,2324,2329,2333,2337,2339,2342,2347,2350,2351,2349,2350,2352,2354,2354,2355,2355,2354,2354,0,0,0,0,0,0,0,0,0,0,0,0,0,0,0,0,0,0,0,0,0,0,0,0,0,0,0,0,0,0,0,0,0,2350,2350,2352,2351,2350,2346,2345,2342,2338,2338,2334,2333,2333,2332,2333,2336,2341,2340,2337,2334,2336,2340,2338,2336,2333,2328,2322,2315,2314,2311,2312,2310,2304,2298,2296,2295,2295,2292,2292,2287,2274,2269,2267,2268,2267,2263,2258,2252,2250,2249,2252,2253,2251,2247,2245,2246,2248,2249,2250,2252,2254,2255,2255,2254,2254,2254,2256,2259,2264,2267,2268,2269,2267,2265,2268,2271,2273,2276,2280,2283,2280,2279,2280,2283,2288,2291,2288,2287,2288,2291,2295,2296,2297,2297,2301,2305,2304,2301,2297,2301,2305,2308,2307,2310,2312,2313,2309,2310,2311,2314,2315,2315,2315,2316,2317,2316,2314,2312,2315,2316,2316,2315,2314,2315,2318,2317,2317,2317,2319,2320,2322,2326,2329,2329,2326,2327,2329,2334,2337,2339,2341,2341,2341,2337,2336,2341,2343,2344,2343,2346,2350,2349,2349,2348,2353,2354,2356,2357,2360,2360,2362,2362,2361,2361,2363,2365,2365,2368,2369,2370,2371,2374,2379,2384,2387,2387,2388,2390,2390,2391,2390,2391,2396,2398,2398,2397,2398,2397,2394,2391,2390,2389,2389,2388,2388,2391,2393,2392,2389,2387,2389,2389,2390,2386,2386,2385,2389,2387,2389,2390,2393,2393,2392,2391,2390,2394,2396,2400,2398,2402,2400,2404,2403,2405,2406,2408,2409,2412,2415,2418,2418,2424,2428,2435,2435,2440,2445,2453,2450,0,0,0,0,0,0,0,0,0,0,0,0,0,0,0,0,0,0,0,0,0,0,0,0,0,0,0,0,0,0,0,0,0,0,0,0,0,0,0,0,0,1364,1368,0,0,0,0,0,0,0,0,0,0,0,0,0,0,0,0,0,0,0,0,0,0,0,0,0,0,0,0,0,0,0,0,0,0,0,0,0,2193,2210,2211,2209,2207,2199,2185,2157,0,0,0,0,0,0,0,0,0,0,0,0,0,0,0,0,0,0,0,0,0,0,0,0,0,0,0,0,0,0,0
0,0,0,0,0,0,0,0,0,1402,1403,1408,1404,1419,1429,1448,1450,1463,1485,1494,1501,1500,1511,1528,1547,1556,1559,1566,1569,1579,1588,1592,1599,1609,1623,1627,1627,1629,1635,1641,1640,1640,1640,1642,1646,1642,1640,1634,1637,0,1446,1404,1400,1418,1466,0,1686,1712,1718,1745,1754,1760,1750,1750,1750,1753,1752,1754,1756,1757,1756,1763,0,0,0,1848,1838,0,0,1477,1473,1467,1465,1464,1466,1470,1476,0,2259,2269,2277,2281,2285,2288,2289,2287,2294,2302,2309,2310,2310,2314,2318,2323,2327,2332,2335,2338,2340,2345,2347,2347,2347,2351,2353,0,0,0,0,0,0,0,0,0,0,0,0,0,0,0,0,0,0,0,0,0,0,0,0,0,0,0,0,0,0,0,0,0,0,0,0,0,0,0,0,0,0,0,0,0,0,0,0,0,0,0,0,0,0,0,0,0,0,0,0,0,0,0,0,0,0,0,0,0,0,0,0,0,0,0,0,0,0,0,0,0,0,0,0,0,0,0,0,0,0,0,0,0,2222,0,0,0,2243,2245,2244,2242,2238,2235,2237,2241,2245,2247,2255,2254,2255,2256,2258,2256,2261,2262,2262,2263,2266,2268,2265,2262,2264,2271,2280,2283,2281,2276,2276,2278,2283,2289,2289,2287,2291,2294,2296,2290,2288,2293,2300,2300,2300,2304,2307,2308,2303,2299,2299,2303,2305,2305,2305,2309,2312,2310,2304,2301,2303,2306,2304,2303,2302,2305,2309,2308,2308,2306,2307,2312,2316,2321,2322,2321,2319,2320,2323,2328,2331,2333,2332,2334,2334,2331,2331,2333,2335,2335,2336,2340,2345,2347,2346,2345,2348,2348,2350,2349,2350,2352,2358,2359,2359,2359,2357,2358,2359,2363,2368,2369,2370,2371,2376,2381,2382,2382,2385,2389,2388,2388,2387,2390,2396,2399,2399,2396,2396,2394,2392,2390,2390,2390,2389,2387,2387,2391,2394,2393,2391,2388,2392,2390,2389,2384,2385,2385,2388,2390,2392,2394,2394,2394,2393,2391,2391,2392,2396,2398,2397,2399,2399,2403,2404,2405,2404,2403,2405,2410,2415,2418,2419,2419,2425,2428,2433,2437,2445,2449,2449,0,0,1400,0,1468,1433,1426,0,0,0,0,0,0,0,0,0,0,0,0,0,0,0,0,0,0,0,0,0,0,0,0,0,0,0,0,0,0,0,0,0,0,1319,0,1357,0,0,0,0,0,0,2313,2343,0,0,0,0,0,0,0,0,0,0,0,0,0,0,0,0,0,0,0,0,0,0,0,0,0,0,0,0,2175,2199,2205,2205,2199,2189,2175,2149,0,0,0,0,0,0,0,0,0,0,0,0,0,0,0,0,0,0,0,0,0,0,0,0,0,0,0,0,0,0,0
0,0,0,0,0,0,0,0,0,1397,1404,1407,1410,1427,1445,1453,1454,1470,1477,1490,1505,1505,1504,1521,1542,1554,1557,1565,1571,1588,1591,1594,1597,1607,1618,1625,1627,1627,1631,1637,1639,1637,1635,1636,1641,1637,1635,1632,1639,1637,1433,1404,1397,1416,1459,0,1653,1699,1714,1737,1752,1756,1749,1747,1749,1752,1752,1755,1755,1755,1753,1762,1783,0,0,0,1833,0,0,1477,1475,1472,1470,1468,1469,1473,1481,0,2259,2264,2270,2275,2284,2287,2291,2290,2297,2303,2309,2310,2305,2310,2316,2324,2329,2333,2335,2336,2335,2339,2339,2342,2338,0,0,0,0,0,1483,1486,1480,1474,1470,1475,1476,1480,1480,1481,1477,1476,1477,1478,1477,1474,1475,1478,1480,1478,1477,1476,1481,1481,1483,1483,1487,1486,1488,1485,1487,1485,1488,1487,1488,1490,1491,1496,1496,1496,1496,1497,1494,1488,1486,1490,1495,1498,1496,1499,1496,1496,1496,1496,1491,1492,1492,1495,1499,1506,1503,1502,1500,1499,1501,1505,1508,1507,1507,1510,1517,1521,1517,1510,1506,1505,1511,1512,1510,1510,1513,1519,1523,1522,1517,1511,1512,1519,1524,1528,1530,1528,1520,1523,1530,1535,1536,1535,1533,1530,1530,1532,1536,1539,1538,1537,1541,1540,1537,1533,1534,1541,1546,1548,1546,1549,1549,1547,1541,1544,1548,1551,1549,1547,1543,1542,1535,1525,1543,1565,1567,1559,1552,1555,1559,1553,1545,1540,0,0,0,0,0,0,0,1566,0,0,0,0,0,0,1567,0,0,0,0,0,0,0,0,0,0,0,0,0,0,0,0,0,0,0,0,0,0,0,0,0,0,0,0,0,0,0,0,0,0,0,0,0,0,0,0,0,0,0,0,0,0,0,0,0,0,0,0,0,0,0,0,0,0,0,0,2377,2378,2379,2382,2389,2395,2397,2396,2394,2393,2392,2391,2390,2390,2391,2391,2386,2384,2389,2391,2392,2388,2389,2392,2390,2388,2382,2385,2387,2392,2393,2395,2394,2395,2394,2392,2391,2391,2393,2393,2394,2396,2398,2400,2403,2406,2406,2404,2402,2406,2411,2418,2420,2423,2423,2427,2430,2435,2439,2443,2445,0,0,0,0,0,0,0,0,0,0,0,0,0,0,0,0,0,0,0,0,0,0,0,0,1504,0,0,0,0,0,0,0,0,0,0,0,0,0,0,0,0,0,1340,1384,1376,0,0,0,0,0,0,0,2342,2318,2293,0,0,0,0,0,0,0,0,0,0,0,0,0,0,0,0,0,0,0,0,0,0,0,0,0,0,0,2155,2179,2191,2188,2169,2148,0,0,0,0,0,0,0,0,0,0,0,0,0,0,0,0,0,0,0,0,0,0,0,0,0,0,0,0,0,0,0,0
0,0,0,0,0,0,0,0,0,1393,1402,1409,1410,1429,1432,1447,1459,1460,1474,1494,1502,1500,1499,1516,1531,1544,1545,1559,1570,1586,1586,1590,1599,1607,1614,1619,1625,1627,1631,1635,1636,1632,1634,1635,1637,1633,1631,1628,1632,1626,1431,1401,1397,1413,0,0,1621,1671,1711,1741,1748,1754,0,1751,1751,1752,1753,1753,1752,1749,1750,1761,1790,0,0,1841,1837,0,0,1499,1486,1483,1480,1478,1474,1476,1480,0,0,2262,2271,2275,2284,2284,2289,2289,2293,2298,2304,2307,2306,2311,2320,2325,2329,2329,2330,2329,2324,2325,2333,0,0,1473,1481,1478,1479,1479,1482,1482,1482,1475,1471,1469,1474,1477,1477,1475,1472,1475,1477,1478,1478,1475,1477,1479,1483,1480,1478,1476,1478,1480,1482,1482,1485,1484,1486,1484,1485,1484,1486,1487,1486,1486,1486,1487,1488,1489,1489,1490,1489,1489,1487,1488,1488,1490,1489,1490,1491,1493,1494,1495,1494,1494,1493,1494,1496,1496,1494,1495,1499,1499,1500,1502,1505,1503,1502,1502,1505,1507,1508,1506,1505,1505,1507,1506,1506,1506,1508,1509,1510,1509,1508,1508,1510,1514,1516,1517,1516,1515,1511,1511,1514,1521,1522,1521,1519,1518,1518,1518,1517,1518,1520,1522,1524,1523,1522,1518,1518,1522,1527,1529,1527,1528,1530,1530,1532,1530,1531,1530,1528,1525,1524,1528,1528,1529,1532,1539,1543,1535,1532,1533,1536,1534,1534,1534,1537,1536,1537,1539,1542,1544,1546,1546,1541,1544,1544,1546,1542,1547,1548,1547,1541,1544,1544,1543,1547,1550,1554,1554,1554,1550,1551,1552,1555,1558,1554,1553,1556,1561,1558,1554,1554,1557,1558,1558,1559,1559,1556,1557,1558,1562,1561,1565,1565,1569,1563,1559,1560,1562,1567,1564,1564,1563,1569,1567,1559,1561,1568,1566,1565,1570,1573,1571,1565,1567,1566,1562,1565,1570,1570,1571,1571,1570,1558,1564,0,0,0,0,0,2385,2388,2386,2385,2389,2391,2390,2386,2386,2386,2389,2386,2388,2389,2390,2389,2385,2385,2384,2388,2392,2394,2392,2393,2393,2393,2392,2394,2393,2393,2390,2395,2395,2399,2402,2407,2408,2405,2402,2406,2409,2416,2417,2423,2423,2426,2429,2440,2444,2445,2444,2446,0,0,0,0,0,0,0,0,0,0,0,0,0,0,0,0,0,0,0,0,0,0,0,0,0,0,0,0,0,0,0,0,0,0,0,0,0,0,0,0,0,0,0,0,0,0,0,0,0,0,0,2299,2308,2285,2268,0,0,0,0,0,0,0,0,0,0,0,0,0,0,0,0,0,0,0,0,0,0,0,0,0,0,0,0,0,0,0,0,0,0,0,0,0,0,0,0,0,0,0,0,0,0,0,0,0,0,0,0,0,0,0,0,0,0,0,0,0,0,0,0
0,0,0,0,0,0,0,0,0,1387,1396,1406,1415,1418,1427,1441,1451,1456,1472,1485,1493,1502,1512,1524,1535,1546,1545,1557,1561,1581,1582,1593,1599,1609,1612,1618,1622,1626,1630,1632,1637,1633,1632,1628,1627,1626,1627,1627,1623,1607,1432,1403,1396,1412,1447,0,0,0,0,0,0,0,0,0,1744,1748,1751,1753,1750,1750,1752,1768,1801,0,0,1845,1840,0,0,1515,1500,1493,1491,1485,1479,1478,1483,0,0,2252,2263,2273,2283,2284,2291,2291,2295,2297,2301,2306,2306,2310,2317,2323,2327,2325,2324,2317,0,0,0,1475,1475,1474,1478,1480,1479,1477,1474,1473,1473,1471,1472,1471,1474,1475,1475,1476,1474,1475,1475,1476,1477,1474,1477,1478,1480,1480,1478,1477,1477,1478,1480,1481,1482,1484,1484,1484,1484,1485,1486,1486,1484,1485,1484,1486,1487,1488,1489,1489,1488,1488,1487,1487,1485,1487,1486,1486,1487,1491,1492,1493,1494,1495,1494,1494,1494,1493,1493,1496,1500,1498,1497,1499,1501,1500,1499,1498,1500,1502,1504,1502,1502,1502,1502,1501,1501,1502,1503,1504,1505,1507,1506,1506,1508,1512,1514,1515,1513,1513,1511,1512,1512,1515,1516,1515,1514,1514,1515,1515,1514,1514,1515,1517,1519,1519,1519,1517,1516,1519,1521,1523,1521,1522,1525,1528,1528,1527,1526,1526,1525,1524,1524,1529,1528,1527,1528,1531,1535,1529,1529,1528,1533,1532,1533,1534,1536,1535,1535,1534,1536,1538,1537,1538,1534,1540,1539,1542,1540,1543,1543,1542,1541,1542,1542,1541,1542,1543,1547,1547,1550,1548,1549,1549,1551,1548,1546,1546,1549,1550,1547,1547,1550,1553,1553,1551,1554,1554,1557,1557,1557,1556,1555,1556,1558,1559,1559,1558,1559,1560,1561,1560,1560,1562,1564,1561,1559,1559,1564,1562,1564,1566,1568,1567,1567,1567,1565,1565,1568,1567,1566,1567,1568,1567,1565,1567,1571,1571,1576,1584,1592,0,0,0,2375,2382,2389,2389,2387,2384,2382,2385,2383,2386,2384,2386,2387,2386,2385,2382,2386,2388,2391,2390,2392,2390,2390,2387,2391,2393,2392,2391,2393,2395,2398,2401,2405,2404,2402,2403,2409,2414,2417,2416,2420,2423,2427,2431,2438,2442,2442,2440,2453,0,0,0,0,0,0,0,0,0,0,0,0,0,0,0,0,0,0,0,0,0,0,0,0,0,0,0,0,0,0,0,0,0,0,0,0,0,0,0,0,0,0,0,0,0,0,0,0,0,0,0,2302,2298,2287,2276,2283,0,0,0,0,0,0,0,0,0,0,0,0,0,0,0,0,0,0,0,0,0,0,0,0,0,0,0,0,0,0,0,0,0,0,0,0,0,0,0,0,0,0,0,0,0,0,0,0,0,0,0,0,0,0,0,0,0,0,0,0,0,0,0
0,0,0,0,0,0,0,0,1379,1389,1397,1400,1409,1406,1426,1435,1449,1462,1475,1482,1492,1509,1516,1530,1539,1543,1539,1548,1556,1567,1580,1589,1597,1609,1616,1617,1617,1623,1630,1630,1633,1630,1631,1626,1626,1626,1627,1627,1622,0,0,1405,1399,1410,1442,0,0,2477,2479,2455,0,0,0,0,1747,1752,1749,1747,1745,1751,1754,1769,1815,0,0,0,1847,0,0,1507,1500,1495,1496,1496,1494,1494,1495,0,2252,2260,2269,2274,2280,2279,2286,2288,2295,2297,2302,2305,2309,2314,2319,2321,2322,2318,2307,2306,0,1472,1491,1485,1481,1478,1478,1478,1476,1472,1470,1467,1468,1468,1472,1473,1475,1474,1474,1475,1476,1475,1475,1475,1476,1475,1478,1478,1477,1478,1478,1478,1477,1478,1480,1481,1481,1482,1482,1485,1486,1486,1485,1484,1484,1484,1484,1485,1486,1487,1488,1488,1488,1489,1489,1488,1486,1487,1487,1486,1489,1491,1492,1491,1492,1492,1494,1493,1492,1491,1493,1496,1499,1498,1497,1498,1498,1498,1500,1500,1501,1501,1504,1505,1504,1502,1502,1502,1504,1503,1503,1503,1506,1508,1509,1508,1509,1512,1514,1515,1512,1511,1511,1512,1512,1514,1514,1515,1514,1515,1516,1516,1514,1514,1514,1516,1518,1518,1519,1519,1519,1520,1520,1520,1521,1522,1523,1524,1526,1526,1527,1527,1527,1525,1525,1529,1529,1529,1528,1530,1532,1529,1529,1528,1531,1532,1532,1534,1535,1536,1535,1534,1534,1535,1535,1536,1535,1537,1536,1538,1540,1542,1541,1542,1542,1545,1543,1542,1542,1543,1546,1547,1548,1548,1547,1549,1548,1547,1545,1547,1549,1549,1546,1548,1550,1551,1551,1549,1551,1553,1556,1557,1556,1556,1553,1553,1553,1555,1558,1559,1560,1559,1559,1556,1557,1558,1561,1561,1562,1563,1563,1563,1563,1566,1565,1566,1568,1567,1566,1564,1568,1567,1566,1565,1567,1567,1566,1568,1571,1574,1575,1579,1581,1585,1585,1588,0,2372,2381,2387,2384,2383,2382,2386,2385,2386,2382,2385,2385,2387,2385,2383,2382,2385,2387,2390,2391,2391,2391,2389,2391,2390,2390,2391,2391,2392,2392,2398,2403,2405,2403,2403,2406,2412,2418,2419,2421,2424,2427,2429,2435,2440,2449,2456,0,0,0,0,0,0,0,0,0,0,1528,0,0,0,0,0,0,0,0,0,0,0,0,0,0,0,0,0,0,0,0,0,0,0,0,0,0,0,0,0,0,0,0,0,1357,1340,0,0,0,0,0,0,0,2292,2284,2286,0,0,2327,0,0,0,0,0,0,0,0,0,0,0,0,0,0,0,0,0,0,0,0,0,0,0,0,0,0,0,0,0,0,0,0,0,0,0,0,0,0,0,0,0,0,0,0,0,0,0,0,0,0,0,0,0,0,0,0,0,0,0,0,0
0,0,0,0,0,0,0,0,0,1401,1401,1401,1404,1426,1438,1447,1458,1469,1476,1491,1502,1511,1517,1526,1538,1549,1545,1552,1561,1577,1586,1594,1597,1608,1615,1617,1614,1618,1623,1627,1626,1628,1623,1621,1620,1626,1629,1629,1624,0,1454,1409,1398,1407,0,0,2478,2492,2487,2482,0,0,0,0,1746,1752,1750,1748,1748,1755,1757,1771,1802,0,0,1853,1850,0,0,1512,1497,1495,1500,1500,1505,1508,1509,0,2248,2256,2263,2268,2279,2280,2286,2288,2296,2300,2303,2307,2309,2313,2313,2313,2312,2286,2294,0,0,1488,1486,1479,1476,1475,1475,1473,1472,1471,1470,1466,1467,1466,1473,1476,1476,1474,1475,1478,1479,1477,1476,1475,1476,1476,1477,1477,1475,1476,1477,1479,1479,1478,1480,1482,1482,1484,1484,1487,1487,1487,1486,1485,1484,1485,1485,1488,1489,1491,1490,1490,1489,1489,1490,1490,1491,1491,1492,1491,1492,1493,1491,1488,1491,1494,1496,1494,1492,1493,1495,1499,1499,1498,1496,1497,1497,1497,1500,1501,1503,1502,1504,1505,1504,1502,1501,1502,1504,1504,1503,1503,1507,1510,1510,1508,1509,1510,1512,1514,1513,1513,1514,1516,1516,1514,1513,1514,1515,1515,1516,1517,1518,1519,1517,1516,1517,1519,1519,1521,1522,1523,1521,1520,1521,1522,1521,1521,1523,1525,1527,1529,1529,1528,1528,1531,1530,1530,1529,1531,1532,1531,1531,1529,1529,1530,1533,1535,1536,1535,1534,1534,1534,1536,1536,1537,1536,1538,1537,1540,1542,1543,1542,1542,1545,1546,1544,1543,1543,1545,1545,1545,1544,1545,1545,1547,1546,1545,1544,1547,1549,1548,1546,1548,1551,1552,1551,1552,1554,1555,1555,1555,1553,1553,1552,1551,1553,1555,1559,1558,1561,1562,1562,1561,1560,1560,1560,1561,1564,1565,1565,1564,1564,1565,1564,1566,1568,1567,1566,1565,1569,1571,1568,1568,1568,1569,1566,1568,1572,1575,1574,1577,1578,1581,1581,1582,1582,1578,0,2380,2383,2385,2385,2389,2387,2387,2383,2384,2383,2385,2387,2387,2386,2386,2387,2389,2391,2390,2391,2390,2390,2390,2388,2391,2389,2391,2391,2396,2400,2403,2403,2405,2405,2411,2416,2419,2419,2423,2429,2430,2433,2439,2453,2465,2543,0,0,0,0,0,0,0,0,0,0,0,0,0,0,0,0,0,0,0,0,0,0,0,0,0,0,0,0,0,0,2842,0,0,0,0,0,0,0,0,0,0,0,1378,1406,1381,0,0,0,0,0,2272,2271,2274,2287,0,0,0,2341,2346,0,0,0,0,0,0,0,0,0,0,0,0,0,0,0,0,0,0,0,0,0,2151,2177,2184,2172,2161,2147,2139,0,0,0,0,0,0,0,0,0,0,0,0,0,0,0,0,0,0,0,0,0,0,0,0,0,0,0,0,0,0,0,0
