0,0,0,0,0,0,0,0,0,1365,1384,1398,1406,1415,1425,1443,1455,1468,1474,1481,1488,1500,1509,1516,1515,1517,1519,1523,1528,1529,1530,1530,1530,1533,1529,1535,1534,1534,1532,1532,1535,1533,1536,1535,1538,1540,1540,1534,1526,1522,1491,1405,1391,1383,1387,0,2491,2488,2489,2486,2478,2476,0,0,0,1731,1735,1739,1744,1745,1742,1741,1742,0,0,1881,1837,1840,1846,0,0,0,1620,1615,1616,1616,1622,1622,1633,0,0,0,0,0,0,0,0,0,2316,0,2381,2428,2410,2349,2260,2249,2258,0,0,0,0,0,1566,1582,1578,1579,1592,1600,1604,1608,1614,1615,1615,1616,1616,1616,1615,1616,1619,1621,1619,1616,1614,1617,1620,1622,1620,1621,1619,1621,1618,1619,1618,1620,1622,1624,1626,1624,1625,1625,1627,1627,1628,1626,1627,1626,1626,1626,1630,1632,1633,1633,1633,1630,1631,1632,1639,1637,1636,1636,1637,1639,1640,1640,1641,1641,1646,1645,1648,1642,1643,1640,1645,1646,1647,1644,1646,1648,1650,1654,1656,1655,1658,1657,1654,1652,1654,1649,1650,1652,1658,1656,1659,0,0,1668,1665,1662,1669,1679,1682,1677,1687,0,1690,1697,0,0,0,0,0,0,0,0,0,0,0,0,0,0,0,0,0,1711,0,0,0,0,0,0,1670,0,0,0,0,0,0,0,2467,2459,2444,2443,0,2457,2434,2428,2441,0,2456,2447,2441,2441,2448,2445,2442,2438,2444,2481,2498,0,0,0,0,0,2431,2464,2470,2462,2443,2437,2438,2429,2420,2424,0,0,0,0,2455,2466,2455,2439,2457,2459,2451,2454,2453,2439,2420,2424,2440,2419,0,2237,2224,2230,0,2405,2462,2462,2457,2448,2440,2431,2429,2429,2434,2436,2447,0,0,2445,2457,2468,0,0,0,0,0,0,0,0,0,0,0,0,1721,1740,1739,1741,1736,1730,0,0,2505,2511,2511,2504,2501,0,0,0,0,0,0,0,0,0,0,0,0,0,0,0,0,0,0,0,0,0,0,0,0,0,0,0,0,0,2394,0,0,0,2479,2481,0,0,0,0,0,0,0,0,2313,2317,2310,0,0,0,0,0,0,0,0,0,0,0,0,0,2293,2292,2286,2285,2295,2305,2302,2292,2273,2276,2294,2296,2292,2280,2263,2265,2263,2268,2278,2275,2269,2253,0,0,0,0,0,0,0,0,0,0,0,0,0,0,0,0,0,0,0,0,0,0,2094,0,0,0,0,0,0,0,0,0,0,0,0,0,0,0,0,0,0,0,0,0,2171,2180,2185,2187,2183,2176,2169,2157,0,0,0,0,0,0,0,0,0,0,0,0,0,0,0,0,0,0,0,0,0,0,0,0,0,0,0,0,0,0
0,0,0,0,0,0,0,0,0,0,1388,1400,1406,1415,1431,1446,1458,1463,1473,1480,1487,1497,1503,1511,1517,1522,1526,1526,1530,1529,1530,1531,1533,1536,1533,1536,1537,1536,1539,1537,1540,1536,1541,1541,1544,1546,1545,1539,1532,1528,1494,1405,1390,1381,1386,0,2501,2500,2487,2487,2494,2483,0,0,0,0,1735,1734,1737,1741,1742,1742,1745,1750,0,0,1834,1840,1844,0,0,1625,1614,1607,1609,1615,1621,1622,0,0,0,0,0,0,2091,2126,0,0,0,0,0,2425,2425,0,2290,2247,2257,0,0,0,0,0,1592,1582,1579,1579,1590,1599,1603,1609,1615,1617,1617,1617,1617,1617,1617,1617,1619,1619,1619,1618,1618,1618,1620,1622,1622,1622,1620,1621,1620,1621,1622,1622,1623,1623,1624,1624,1625,1625,1626,1626,1628,1627,1628,1628,1627,1628,1630,1632,1632,1632,1632,1630,1633,1634,1637,1635,1637,1638,1638,1637,1637,1637,1638,1640,1644,1644,1643,1641,1642,1642,1643,1644,1646,1645,1645,1644,1646,1648,1650,1651,1653,1652,1651,1650,1653,1652,1651,1651,1655,1653,1654,1655,1658,1659,1658,1658,1658,1662,1663,1662,1664,1668,1668,1669,1669,1668,1666,1667,1667,1671,1673,1673,1670,1669,1671,1674,1676,1673,1673,1675,1678,1683,1682,1678,1675,1678,1682,1682,1682,1683,1687,1686,1684,1679,1679,1678,1692,1689,1681,1680,1679,1684,1695,1695,0,1685,1682,1693,1686,1676,1690,1692,1684,1689,1669,0,0,0,1681,1682,1674,1677,1684,1695,0,0,0,0,0,0,0,0,0,0,0,0,0,0,0,0,0,0,0,0,0,0,0,0,0,0,1724,0,0,0,0,0,0,2450,2446,0,0,0,0,0,0,0,0,0,0,0,0,0,0,0,0,0,0,0,0,0,0,0,0,0,1729,1736,1733,1734,1726,1721,1713,0,2521,2529,2531,2530,2520,2508,0,0,0,0,0,0,0,0,0,0,0,0,0,0,0,0,0,0,0,0,0,0,0,0,0,0,0,2449,2485,2499,2504,2510,2512,2510,2505,2496,2487,2488,2503,2525,2459,0,0,2392,2381,2359,0,0,0,0,0,0,0,0,2352,2349,0,2340,2339,2346,2342,2354,2363,2360,2351,2331,2319,2273,2290,2292,2291,2276,2264,0,0,0,2277,2287,2283,2284,0,0,0,0,2271,2280,2273,2272,2269,0,0,0,0,0,0,0,0,0,0,0,0,0,0,0,2156,2143,0,0,0,0,0,0,0,0,0,0,0,0,0,0,0,0,0,0,2171,2180,2187,2186,2182,2176,2171,2159,0,0,0,0,0,0,0,0,0,0,0,0,0,0,0,0,0,0,0,0,0,0,0,0,0,0,0,0,0,0
0,0,0,0,0,0,0,0,0,0,1396,1402,1403,1413,1428,1450,1454,1462,1466,1471,1479,1489,1498,1507,1517,1526,1529,1533,1533,1534,1534,1538,1539,1539,1535,1539,1539,1539,1544,1546,1547,1543,1545,1542,1543,1549,1551,1546,1536,1528,1484,1400,1388,1382,1386,0,2485,2481,2470,2470,2481,2479,0,0,0,1730,1735,1736,1737,1740,1741,1743,1743,1748,0,1863,1831,1837,1842,0,0,1614,1605,1600,1601,1609,1619,1618,0,0,0,0,0,0,2106,0,2187,0,2199,0,0,0,0,0,0,2245,2270,0,0,0,0,0,1580,1578,1579,1582,1587,1597,1608,1613,1619,1621,1619,1619,1618,1620,1621,1622,1622,1621,1620,1619,1619,1620,1619,1621,1622,1624,1622,1624,1622,1623,1623,1624,1624,1623,1624,1623,1623,1624,1627,1628,1628,1628,1628,1630,1629,1632,1632,1634,1632,1633,1633,1633,1635,1636,1638,1637,1638,1639,1639,1640,1640,1640,1639,1641,1642,1643,1641,1641,1643,1643,1643,1644,1646,1647,1645,1645,1646,1647,1648,1649,1650,1651,1650,1650,1652,1652,1652,1654,1657,1654,1653,1654,1656,1658,1659,1659,1659,1660,1661,1661,1662,1664,1662,1662,1661,1661,1661,1662,1664,1666,1666,1667,1665,1664,1666,1669,1671,1670,1670,1670,1669,1671,1671,1671,1670,1673,1674,1674,1674,1675,1675,1675,1675,1673,1674,1677,1680,1678,1674,1675,1676,1680,1681,1680,1678,1677,1681,1685,1684,1684,1683,1684,1684,1683,1684,1687,1692,1687,1686,1685,1685,1685,1688,1691,1693,1696,1697,1698,1698,1702,1703,1700,1697,1699,1700,1700,1706,1707,1707,1696,1698,1695,1700,1705,1710,1704,1704,1705,1708,1708,1709,1713,1717,0,0,1721,1720,1713,1715,1718,1721,1717,1711,1707,1705,1700,1701,1710,1712,1715,1712,1709,1707,1707,1706,1704,1707,1700,1708,1705,1711,1712,1713,1718,1717,1721,1721,1724,1722,1721,1716,0,2521,2528,2532,2526,2501,2471,0,0,0,0,0,0,0,0,0,0,0,0,0,0,0,0,0,0,0,0,0,0,0,0,0,0,0,2513,2512,2517,2518,2520,2521,2517,2515,2510,2510,2524,2569,2598,2599,0,0,0,2449,2402,2392,2394,0,0,2379,0,0,0,2378,2364,2358,2358,2368,2368,2377,2389,2394,2401,2381,2349,2280,2275,2285,2287,2285,0,0,0,0,0,0,0,0,0,0,0,0,0,2294,2303,2315,2297,2301,2309,0,0,0,0,0,0,0,0,0,0,0,0,0,0,0,2141,2133,0,0,0,0,0,0,0,0,0,0,0,0,0,0,0,0,0,2179,2192,2191,2189,2183,2180,2176,2165,0,0,0,0,0,0,0,0,0,0,0,0,0,0,0,0,0,0,0,0,0,0,0,0,0,0,0,0,0,0
0,0,0,0,0,0,0,0,0,1389,1395,1400,1404,1416,1431,1445,1453,1461,1461,1468,1472,1485,1498,1509,1517,1527,1533,1536,1541,1542,1545,1544,1544,1546,1544,1547,1550,1549,1553,1547,1552,1549,1552,1552,1553,1554,1553,1549,1543,1533,1497,1404,1389,1386,1393,0,2480,2469,2462,2468,2479,0,0,0,0,1729,1731,1733,1736,1743,1743,1743,1741,1744,0,0,1840,1843,1844,0,0,1600,1593,1592,1593,1597,1603,1612,0,0,0,0,0,2432,2415,0,2394,0,0,0,2245,2256,0,2181,2200,2219,0,0,0,0,0,1569,1568,1570,1573,1581,1585,1596,1604,1619,1618,0,0,0,0,0,0,0,0,0,0,0,0,0,0,1621,1628,1630,1627,1632,1635,1634,1632,1632,1631,1627,1624,1622,1623,1625,1627,1629,1629,1630,1631,1633,1634,1637,1636,1638,1636,1635,1634,1636,1639,1638,1637,1639,1641,1640,1638,1639,1641,1642,1641,1642,1644,1645,1643,1642,1642,1644,1645,1645,1645,1646,1646,1646,1647,1647,1648,1649,1650,1651,1652,1651,1652,1650,1651,1654,1658,1657,1654,1655,1657,1660,1661,1661,1662,1661,1662,1663,1664,1665,1663,1663,1663,1663,1662,1664,1666,1669,1667,1668,1667,1667,1668,1670,1672,1672,1672,1671,1670,1670,1670,1671,1673,1675,1675,1673,1673,1674,1674,1674,1675,1675,1675,1677,1678,1678,1677,1677,1679,1681,1682,1681,1678,1677,1680,1682,1684,1685,1686,1687,1687,1685,1686,1687,1691,1689,1689,1690,1691,1689,1688,1688,1690,1691,1694,1694,1694,1694,1694,1693,1693,1695,1695,1695,1698,1700,1699,1696,1698,1695,1698,1699,1702,1699,1700,1702,1704,1703,1703,1705,1706,1707,1709,1712,1711,1710,1708,1708,1709,1705,1703,1702,1702,1702,1702,1704,1707,1712,1713,1711,1710,1708,1710,1709,1713,1710,1715,1716,1719,1717,1716,1716,1715,1717,1714,1715,1714,1714,1706,1694,0,0,2519,0,0,0,0,0,0,0,0,0,0,0,0,0,0,0,0,0,0,0,0,0,0,0,0,0,0,0,0,2498,2515,2519,2518,2517,2518,2518,2520,2517,2515,2514,2523,2556,2598,2616,2616,2603,2581,0,2604,2597,0,0,2479,0,0,0,0,0,0,0,0,0,0,0,0,0,0,0,0,0,2261,2275,2283,2285,2282,0,0,0,0,0,0,0,0,0,0,1382,0,0,2291,2311,2319,2310,2301,2300,0,0,0,0,0,0,0,0,0,0,0,0,0,0,0,2158,2145,2140,0,0,0,0,0,0,0,0,0,0,0,0,0,0,0,0,2191,2196,2195,2191,2186,2179,2173,2163,0,0,0,0,0,0,0,0,0,0,0,0,0,0,0,0,0,0,0,0,0,0,0,0,0,0,0,0,0,0
0,0,0,0,0,0,0,0,0,1385,1391,1397,1402,1418,1428,1447,1457,1468,1466,1473,1483,1495,1506,1512,1516,1525,1529,1540,1545,1550,1552,1553,1552,1554,1551,1553,1554,1556,1553,1554,1556,1556,1556,1558,1559,1559,1556,1552,1546,1540,1485,1406,1390,1387,1397,0,2489,2475,2463,2471,2471,0,0,0,0,1726,1731,1735,1741,1746,1747,1744,1740,1738,0,1868,1844,1846,1845,0,0,1585,1583,1581,1587,1590,1595,1596,1597,0,0,0,0,0,0,0,2416,0,0,0,2391,2362,0,2169,2178,2206,2215,0,0,0,0,1555,1560,1561,1566,1572,1579,1584,1589,0,0,0,0,0,0,0,0,0,0,0,0,0,0,0,0,0,0,0,0,0,0,0,0,0,0,0,0,0,0,0,1608,1629,0,1634,1613,1632,1639,1650,1652,1652,1648,1647,1644,1644,1644,1638,1642,1651,1654,1649,1644,1653,1655,1656,1650,1651,1649,1653,1656,1654,1652,1652,1655,1653,1648,1649,1652,1654,1654,1657,1658,1655,1654,1656,1658,1658,1654,1648,1651,1657,1662,1662,1659,1659,1661,1666,1667,1670,1670,1670,1671,1671,1672,1671,1671,1673,1674,1672,1669,1669,1674,1676,1673,1674,1674,1674,1674,1676,1677,1678,1676,1675,1673,1672,1670,1670,1674,1675,1674,1673,1673,1674,1673,1673,1675,1676,1675,1676,1677,1678,1678,1678,1679,1681,1681,1682,1679,1678,1678,1679,1681,1684,1687,1688,1687,1688,1687,1687,1688,1690,1693,1693,1695,1692,1692,1690,1691,1689,1692,1693,1693,1693,1694,1693,1693,1694,1695,1697,1699,1699,1699,1698,1700,1699,1699,1700,1701,1702,1703,1705,1705,1703,1703,1704,1704,1704,1707,1710,1711,1710,1708,1706,1705,1703,1703,1702,1701,1702,1704,1706,1707,1711,1713,1714,1712,1710,1711,1711,1714,1714,1715,1718,1720,1720,1719,1718,1719,1718,1716,1711,1707,1704,1699,1687,1662,0,0,0,0,0,0,0,0,0,0,0,0,0,0,0,0,0,0,0,0,0,0,0,0,0,0,0,0,0,2449,0,2498,2504,2504,2501,2502,2503,2504,2502,2502,2501,2520,2559,2595,2609,2608,2594,2578,2603,2617,2607,2589,2563,2490,0,0,0,0,0,0,0,0,0,0,0,0,0,0,0,0,0,2254,2269,2276,2281,0,0,0,0,0,0,0,0,0,0,0,1370,1384,0,2292,2305,2314,2303,2295,2291,2335,0,0,0,1343,0,0,0,0,0,0,0,0,0,0,2169,0,2143,0,0,0,0,0,0,0,0,0,0,0,0,0,0,0,0,2183,2188,2190,2193,2188,2183,2171,2158,0,0,0,0,0,0,0,0,0,0,0,0,0,0,0,0,0,0,0,0,0,0,0,0,0,0,0,0,0,0
0,0,0,0,0,0,0,0,0,1380,1385,1395,1403,1420,1433,1449,1455,1468,1476,1487,1488,1497,1500,1513,1516,1531,1536,1541,1547,1551,1557,1556,1560,1564,1565,1567,1567,1562,1558,1557,1561,1562,1563,1568,1566,1563,1557,1553,1550,1548,0,1408,1393,1392,1401,0,2485,2471,2480,2481,2464,0,0,0,0,1726,1732,1735,1743,1747,1749,1743,1740,0,0,0,1845,1846,1842,0,1567,1576,1575,1574,1578,1583,1587,1576,0,0,0,0,0,0,0,0,0,0,0,0,0,2378,0,0,2214,2227,2228,0,0,0,1551,1549,1552,1560,1564,1567,1569,1572,1564,0,2470,2471,2466,2464,2472,2471,2474,2473,2482,2478,2479,2479,2480,2476,2473,2470,2468,2468,0,0,0,0,0,0,0,0,0,0,0,0,0,0,0,0,0,0,0,0,0,0,0,0,0,0,0,0,0,0,0,0,0,0,0,0,0,0,0,0,0,0,0,0,0,0,0,0,0,0,0,0,0,0,1667,0,0,0,1662,1655,1650,1659,1637,1641,1642,0,1684,1671,0,0,0,0,0,0,0,0,0,0,0,0,0,0,0,0,0,0,0,0,0,0,0,0,0,0,0,0,0,1680,1689,1685,1679,1678,1678,1676,1677,1677,1682,1684,1681,1678,1679,1682,1682,1681,1687,1687,1688,1691,1690,1684,1682,1681,1684,1689,1698,1697,1694,1693,1694,1692,1692,1699,1703,1703,1701,1698,1699,1697,1694,1696,1699,1701,1698,1697,1696,1695,1695,1697,1701,1705,1705,1703,1705,1706,1708,1704,1702,1701,1702,1704,1704,1709,1709,1705,1706,1707,1706,1703,1706,1711,1711,1708,1707,1705,1704,1701,1702,1702,1700,1703,1706,1710,1710,1712,1713,1714,1712,1710,1710,1711,1715,1716,1718,1720,1719,1717,1716,1717,1720,1720,1718,1708,1699,1692,1689,1679,1677,1689,0,0,2274,2270,2270,2279,2280,2282,2273,2273,2280,2287,2298,2301,2295,0,0,0,0,0,2278,0,0,0,0,0,0,0,0,0,0,0,0,0,0,0,0,0,0,0,0,0,0,2583,0,0,0,0,0,0,0,0,0,0,0,0,0,0,0,0,0,0,0,0,0,0,0,0,0,2249,2256,2264,2267,0,1404,0,1503,0,0,0,0,0,0,0,0,0,0,0,0,2305,2312,2294,2295,2290,2294,0,0,1359,0,0,0,0,0,0,0,0,0,0,0,0,2152,2141,2139,0,0,0,0,0,0,0,0,0,0,0,0,0,0,0,2181,2183,2185,2189,2188,2184,2171,2155,0,0,0,0,0,0,0,0,0,0,0,0,0,0,0,0,0,0,0,0,0,0,0,0,0,0,0,0,0,0
0,0,0,0,0,0,0,0,0,1383,1395,1401,1408,1422,1435,1450,1458,1467,1478,1483,1486,1485,1500,1511,1516,1527,1529,1535,1541,1550,1556,1557,1564,1569,1571,1568,1564,1563,1562,1567,1568,1569,1570,1572,1568,1566,1559,1556,1551,1554,0,1404,1395,1390,1398,0,2466,2474,2481,2485,2466,0,0,0,0,1725,1734,1738,1746,1748,1751,1745,1743,0,0,0,1840,1841,1837,0,0,1574,1574,1574,1577,1580,1577,1567,0,0,0,0,2429,0,2425,2426,2434,2439,2445,2430,2419,2437,2443,2432,0,2254,2246,0,0,0,1554,1550,1551,1556,1560,1560,1563,1566,0,2458,2468,2473,2472,2473,2480,2476,2475,2471,2478,2474,2474,2474,2477,2476,2475,2475,2476,2474,0,3532,0,3530,0,0,0,2434,2452,2441,2429,2418,2396,0,2432,0,2440,2424,0,0,0,0,0,0,0,0,2475,2475,2483,0,0,0,0,0,0,0,0,2448,2434,0,2443,0,0,2427,0,0,0,0,0,0,0,0,0,0,0,0,0,0,0,0,0,0,0,0,0,2460,0,0,0,2334,2323,2321,2329,2325,2322,2311,2306,2297,2297,2303,2307,2306,2302,2300,0,2309,2318,2320,0,2315,2313,0,0,0,0,0,0,2325,2331,0,0,0,0,0,0,0,0,0,0,0,0,0,0,0,0,0,0,0,0,0,0,0,0,0,0,0,0,0,0,0,0,0,0,0,0,0,0,0,0,0,0,0,0,0,0,0,0,0,0,0,0,0,0,0,0,0,1713,1710,1705,1713,1714,1718,1721,1719,1714,1713,1707,1708,1717,1722,1717,1712,1713,1711,1708,1708,1706,1706,1700,1703,1711,1721,1719,1718,1715,1720,1721,1717,1713,1715,1720,1722,1721,1726,1721,1721,1718,1719,1719,1715,1711,1699,1690,1684,1683,1678,1680,1698,0,2235,2250,2253,2257,2259,2264,2262,2261,2258,2263,2261,2265,2271,2274,2270,2265,2262,2262,2264,2265,2261,2261,2265,2269,2266,2270,2278,2290,2293,2298,2314,2322,2328,2328,0,2310,2309,2317,2319,2312,2290,2287,2301,2303,2289,2266,2263,2272,2275,2280,2279,2273,2273,2267,0,0,0,2267,2267,0,2260,0,0,2220,2230,2232,2246,2256,2261,2260,2255,0,0,1508,1501,1521,0,0,0,0,0,0,0,0,1426,0,1380,0,2305,2310,2299,2301,2293,2296,2306,0,0,0,0,0,0,0,0,0,0,0,0,0,0,0,2145,2145,2170,0,0,0,0,0,0,0,0,0,0,0,0,0,0,2192,2192,2188,2189,2190,2190,2181,2161,0,0,0,0,0,0,0,0,0,0,0,0,0,0,0,0,0,0,0,0,0,0,0,0,0,0,0,0,0,0
0,0,0,0,0,0,0,0,0,1387,1399,1407,1413,1416,1428,1443,1457,1467,1476,1478,1478,1485,1498,1512,1519,1522,1527,1533,1543,1553,1558,1560,1565,1566,1567,1566,1568,1568,1572,1572,1572,1573,1575,1575,1570,1569,1565,1561,1556,1560,1545,1404,1394,1391,1397,0,2475,2471,2477,2479,2464,0,0,0,0,1720,1731,1737,1743,1745,1746,1743,1743,1748,0,0,1845,1844,0,0,0,1575,1571,1573,1571,1571,1558,1544,0,0,0,0,0,0,2426,0,0,2439,2444,0,2439,2439,2444,2431,0,2261,2250,0,0,1559,1551,1552,1548,1553,1553,1561,1567,1574,0,2458,2470,2475,2477,2477,2480,2477,2474,2470,2473,2468,2466,2465,2474,2476,2476,2476,2475,2471,0,3534,3527,0,0,0,0,0,0,0,0,0,0,0,0,0,0,0,0,0,0,0,0,0,0,0,2471,2477,0,0,0,0,0,0,0,0,2439,2435,2417,2420,2440,2444,2431,2427,2427,2455,2464,2463,0,0,0,0,0,0,0,0,0,0,0,0,0,0,0,0,2458,2448,2417,2378,2361,2344,2336,2334,2337,2333,2328,2320,2316,2310,2312,2315,2317,2314,2310,2313,2315,2320,2325,2326,2329,2326,2329,2325,2327,2329,2331,2336,2337,2345,2348,2355,2353,0,0,0,0,0,0,0,2516,2528,2525,0,0,0,0,2480,2479,0,0,2442,2446,2435,2431,2432,2431,2429,2425,2426,2421,2425,2426,2427,2424,2428,2437,2433,2434,2429,2428,2423,2415,2411,2409,2407,2408,2400,2398,2393,2396,2401,2416,2419,2422,2423,2430,2421,2412,2411,2416,2418,2413,2407,0,0,2414,2433,2423,2416,2415,2418,2420,2410,0,0,0,0,0,0,0,0,0,0,0,0,0,0,0,0,0,0,0,0,0,0,0,0,0,0,1677,1695,1693,1692,1686,1678,1674,1670,1673,1682,0,0,2247,2257,2259,2261,2265,2266,2264,2263,2263,2259,2261,2268,2272,2271,2265,2267,2267,2269,2267,2267,2273,2277,2277,2271,2272,2275,2275,2273,2275,2280,2285,2287,2287,2280,2272,2274,2280,2285,2276,2270,2271,2272,2273,2265,2263,2258,2257,2260,2263,2263,2260,2260,2257,2246,2246,0,2263,2257,2251,2243,2246,0,0,2233,2237,2250,2261,2268,2267,0,0,0,0,0,0,0,0,0,0,0,0,0,0,1415,1407,0,0,0,2322,2315,2312,2297,2303,2307,0,0,0,0,0,0,0,0,0,0,0,0,0,0,0,2145,2153,2161,0,0,0,0,0,0,0,0,0,0,0,0,0,0,2204,2198,2192,2192,2194,2190,2181,2157,0,0,0,0,0,0,0,0,0,0,0,0,0,0,0,0,0,0,0,0,0,0,0,0,0,0,0,0,0,0
0,0,0,0,0,0,0,0,0,1391,1402,1410,1414,1415,1418,1447,1460,1464,1471,1472,1483,1489,1507,1510,1522,1524,1531,1540,1548,1554,1560,1561,1563,1560,1562,1564,1567,1573,1581,1580,1579,1575,1581,1577,1573,1572,1570,1567,1561,1563,0,1395,1390,1387,1395,0,2460,2458,2463,2455,2446,0,0,0,0,1723,1732,1739,1743,1745,1742,1742,1746,1762,0,1887,1846,1843,0,0,1566,1567,1565,1558,1558,1555,1558,1557,0,0,0,0,0,0,0,0,0,0,0,0,0,2418,0,0,0,0,0,0,0,1536,1538,1544,1541,1545,1548,1558,1575,0,0,2456,2469,2475,2478,2476,2476,2474,2471,2466,2467,0,2457,0,0,2467,2467,0,0,0,0,0,0,0,0,0,0,0,0,0,0,0,2429,0,2421,0,0,2404,0,2425,2416,0,0,0,0,2442,2458,2473,2440,0,0,0,0,0,0,0,0,0,0,0,0,0,0,0,0,0,2463,0,0,0,0,0,0,0,0,0,0,0,0,0,0,0,0,2457,2453,2425,2392,2369,2357,2344,2337,2332,2333,2329,2326,2320,2319,2316,2319,2319,2315,2312,2312,2316,2318,2321,2323,2325,2327,2330,2334,2333,2332,2331,2333,2338,2342,2349,2354,2359,2367,2365,0,0,0,0,0,0,2519,2531,0,0,0,0,0,2473,2460,2450,2448,2449,2450,2442,2439,2436,2439,2431,2433,2427,2434,2433,2436,2432,2431,2432,2435,2439,2441,2437,2438,2436,2430,2420,2418,2414,2417,2411,2413,2409,2413,2415,2427,2431,2432,2428,2431,2428,2428,2427,2431,2430,2428,2428,2419,2423,2430,2436,2429,2428,2433,2436,2433,2423,2422,0,2426,2429,2415,2412,2411,2413,2408,2406,2418,2425,2426,2425,2420,2419,2426,2426,2429,2444,2428,0,2412,2435,2426,0,0,0,0,0,1678,1671,1671,1663,1666,1669,1681,0,0,0,0,2295,2294,2299,2292,0,0,2270,2276,2289,2295,2307,0,0,0,0,2297,2304,0,0,0,2319,0,0,0,2321,2315,2319,2319,2315,2302,2299,2295,2295,2295,2288,2295,2289,2293,2286,2279,2277,2287,2286,2288,2281,2285,2278,2274,2274,2265,2253,0,0,0,2250,2241,0,2239,0,0,0,0,0,0,0,0,0,0,0,0,0,0,0,0,0,0,0,0,0,0,1419,1394,1383,0,0,2329,2327,2316,2304,2303,2300,0,0,0,0,0,0,0,0,0,0,0,0,0,0,0,2157,2159,2152,0,0,0,0,0,0,0,0,0,0,0,0,0,0,2193,2194,2193,2194,2196,2189,2181,2158,0,0,0,0,0,0,0,0,0,0,0,0,0,0,0,0,0,0,0,0,0,0,0,0,0,0,0,0,0,0
0,0,0,0,0,0,0,0,1374,1378,1401,1408,1411,1412,1418,1445,1447,1447,1464,1480,1498,1499,1514,1514,1528,1536,1547,1551,1554,1560,1565,1568,1568,1564,1566,1572,1575,1577,1580,1580,1581,1579,1583,1580,1579,1578,1576,1574,1571,1569,0,1393,1384,1384,1389,0,2440,2448,2441,2429,2417,0,0,0,0,1726,1734,1739,1747,1744,1741,1740,1753,1792,1993,1938,1845,1840,0,0,1556,1555,1549,1543,1544,1550,1569,0,0,0,2109,2124,2115,2120,2139,0,0,0,0,0,0,0,0,2267,0,0,0,0,1508,1518,1522,1531,1534,1540,1548,1561,1563,0,2441,2454,2469,2473,2478,2476,2477,2477,2472,0,0,0,0,0,0,0,0,0,0,0,0,3534,3546,3556,0,0,0,0,0,0,0,2387,0,0,2405,2413,0,2398,2417,2434,2442,0,0,2423,2433,2440,2466,2473,2478,0,0,0,0,0,2462,2453,2471,0,2479,2466,2478,2484,2492,2493,2491,2493,2500,2510,2496,2478,2438,2422,2435,0,0,0,0,0,0,0,0,0,2456,2448,2433,2397,2376,2362,2353,2348,2340,2336,2331,2329,2324,2319,2317,2315,2318,2316,2314,2312,2314,2318,2316,2316,2316,2317,2320,2324,2328,2327,2327,2331,2334,2336,2340,2344,2346,2351,2361,2370,2375,2377,2403,2443,2445,0,2495,2509,2500,2461,2455,2466,2458,2447,2437,2435,2444,2446,2451,2445,2440,2432,2429,2426,2428,2429,2431,2434,2431,2428,2429,2432,2439,2440,2441,2437,2440,2439,2433,2424,2423,2422,2423,2420,2421,2421,2421,2422,2430,2438,2440,2437,2435,2436,2436,2437,2436,2434,2435,2438,2435,2437,2435,2437,2428,2432,2439,2441,2438,2432,2433,2436,2438,2436,2430,2430,2436,2442,2439,2447,2451,2456,2454,2454,2456,2461,2462,2463,2459,2463,2461,2460,2457,2467,2464,2455,0,0,0,0,1671,1668,1666,1656,1656,1657,1664,1641,0,0,0,0,0,0,0,0,0,0,0,0,0,0,0,0,0,0,0,0,0,0,0,2499,2502,2500,0,0,0,0,0,0,0,0,0,0,0,0,0,0,0,0,0,0,0,0,0,0,0,0,0,0,0,0,0,0,0,0,0,0,0,0,0,0,0,0,0,0,0,0,0,0,0,0,0,0,0,0,0,0,0,0,0,0,1415,1410,1379,0,2319,2330,2322,2307,2301,2299,2290,0,0,0,0,0,0,0,0,0,0,0,0,0,0,2161,2161,2160,0,0,0,0,0,0,0,0,0,0,0,0,0,0,2183,2184,2191,2193,2195,2186,2179,2162,0,0,0,0,0,0,0,0,0,0,0,0,0,0,0,0,0,0,0,0,0,0,0,0,0,0,0,0,0,0
0,0,0,0,0,0,0,0,0,1387,1405,1408,1410,1413,1422,1433,1436,1442,1462,1487,1502,1505,1510,1512,1525,1538,1550,1549,1554,1558,1564,1567,1569,1570,1575,1580,1582,1579,1581,1581,1583,1580,1586,1586,1586,1584,1582,1582,1580,1573,0,1394,1386,1386,1394,0,2472,2443,2434,2412,2406,2395,0,0,0,1732,1738,1742,1750,1750,1748,1746,1762,0,0,0,1843,1840,0,0,0,1547,1538,1532,1535,1542,1559,1590,0,0,2178,2181,2180,2163,2171,2184,2187,2191,2202,2214,2242,2264,2256,2221,2214,0,0,0,1511,1508,1507,1518,1526,1533,1541,1552,0,0,2419,2440,2455,2461,2466,2468,2473,2475,2468,2452,2420,2409,2397,2392,0,0,0,2387,0,0,3542,0,0,3561,3554,0,0,0,0,0,0,0,0,0,0,0,0,0,0,0,0,0,0,0,0,0,2467,2475,2419,0,0,0,0,0,2453,2460,2476,2484,2485,2477,2480,2484,2491,2492,2486,2496,2500,2510,2502,2493,2477,2467,2469,2475,2471,2467,2471,2475,2468,2458,2451,2450,2436,2423,2402,2384,2367,2349,2341,2336,2334,2330,2328,2325,2321,2318,2314,2311,2312,2312,2312,2311,2313,2316,2315,2315,2312,2315,2316,2322,2322,2322,2324,2329,2334,2336,2342,2342,2343,2344,2353,2365,2370,2377,2393,2419,2432,2423,2448,2466,2457,2455,2460,2453,2440,2429,2428,2434,2437,2441,2445,2444,2442,2433,2430,2422,2424,2421,2428,2435,2435,2427,2420,2426,2430,2434,2433,2436,2441,2441,2438,2427,2426,2422,2423,2422,2423,2426,2425,2427,2431,2439,2442,2440,2437,2436,2439,2438,2437,2432,2434,2439,2442,2440,2435,2432,2430,2437,2441,2444,2441,2440,2440,2442,2441,2443,2438,2443,2446,2450,2451,2457,2463,2469,2469,2474,2473,2474,2473,2475,2474,2473,2473,2476,2479,2481,2479,2477,2468,0,0,0,0,1662,1661,1653,1655,1657,1656,1647,0,0,0,0,0,0,0,0,0,0,0,2485,0,0,2508,2518,2519,2512,2498,2504,2512,2523,2524,2529,2526,2525,2522,2518,2518,2519,2540,0,2600,2608,2613,2612,2614,2613,2614,2613,2607,2595,2584,2586,2590,2592,2590,2593,2594,2598,2599,2606,2603,2601,2590,0,0,0,0,0,0,0,0,0,0,0,0,0,0,0,0,0,0,0,0,0,0,0,0,0,0,0,0,0,1421,1412,1383,0,0,2323,2324,2314,2301,2295,2288,2284,0,0,0,0,0,0,0,0,0,0,0,0,0,0,2163,2163,2162,0,0,0,0,0,0,0,0,0,0,0,0,2169,2193,2195,2193,2193,2193,2189,2185,2172,0,0,0,0,0,0,0,0,0,0,0,0,0,0,0,0,0,0,0,0,0,0,0,0,0,0,0,0,0,0
0,0,0,0,0,0,0,0,0,1381,1407,1409,1411,1414,1421,1426,1432,1443,1465,1486,1502,1501,1508,1513,1526,1534,1541,1545,1555,1561,1567,1572,1578,1579,1582,1585,1587,1580,1581,1581,1583,1579,1583,1589,1591,1588,1587,1588,1586,1578,0,1406,1390,1389,1397,0,2470,2458,2442,2423,2407,2388,0,0,0,1739,1744,1747,1753,1752,1751,1747,1763,1806,2107,0,0,1843,0,0,0,1549,1541,1531,1529,1535,1549,1569,0,0,2225,2228,2226,2224,2226,2226,2224,2220,2226,2235,2247,2252,2248,2236,2236,0,0,0,1511,1506,1511,1519,1523,1528,1536,1541,0,2342,2346,2384,2414,2425,2433,2443,2454,2454,0,0,2378,2390,2396,2396,2402,2404,0,0,0,0,0,0,0,0,0,0,0,0,0,0,0,0,0,0,0,2459,2446,2453,0,0,2470,2447,2438,2418,2451,2462,2469,2475,2478,2459,2437,2432,2439,2450,2456,2466,2469,2469,2475,2479,2481,2484,2484,2483,2479,2483,2491,2494,2492,2488,2477,2470,2469,2474,2469,2468,2470,2471,2460,2449,2445,2438,2415,2389,2380,2372,2360,2348,2337,2328,2325,2326,2325,2322,2318,2313,2306,2304,2303,2308,2307,2308,2310,2314,2312,2311,2308,2314,2316,2320,2316,2314,2317,2323,2329,2332,2340,2339,2336,2334,2345,2355,2362,2369,2381,2397,2401,2407,2405,2418,2428,2435,2434,2429,2421,2421,2427,2431,2432,2437,2438,2439,2438,2434,2428,2423,2421,2420,2422,2429,2429,2425,2424,2431,2437,2435,2433,2430,2435,2434,2433,2427,2426,2425,2424,2423,2426,2424,2423,2423,2429,2436,2441,2441,2439,2436,2436,2438,2436,2435,2434,2436,2439,2439,2437,2436,2434,2440,2440,2445,2447,2450,2448,2446,2447,2446,2447,2448,2452,2452,2454,2460,2466,2470,2475,2479,2479,2477,2480,2482,2484,2477,2479,2481,2487,2485,2481,2484,2477,2444,0,0,0,1652,1658,1655,1656,1652,1648,1641,1635,0,2499,2500,2504,2493,0,0,0,0,0,0,0,0,2504,2529,2531,2525,2522,2528,2532,2537,2535,2538,2537,2536,2534,2533,2539,2554,2585,2609,2620,2624,2628,2630,2632,2630,2630,2629,2622,2610,2600,2601,2604,2605,2606,2607,2611,2614,2616,2616,2615,2616,2608,2607,0,0,0,0,1456,0,0,0,0,0,0,0,0,0,0,0,0,0,0,0,0,0,0,0,0,0,0,1453,0,1389,1397,0,0,2321,2325,2322,2305,2295,2289,0,0,0,0,0,0,0,0,0,0,0,0,0,0,0,0,2154,2148,0,0,0,0,0,0,0,0,0,0,0,0,2194,2200,2198,2196,2196,2195,2192,2185,2170,0,0,0,0,0,0,0,0,0,0,0,0,0,0,0,0,0,0,0,0,0,0,0,0,0,0,0,0,0,0
0,0,0,0,0,0,0,0,0,0,1393,1395,1409,1418,1428,1429,1436,1453,1466,1482,1492,1500,1500,1508,1522,1528,1540,1545,1554,1559,1565,1575,1582,1583,1584,1586,1590,1583,1585,1586,1589,1586,1589,1594,1594,1593,1589,1591,1588,1585,0,1417,1396,1391,1400,0,2494,2491,2478,2458,2439,0,0,0,0,1742,1746,1750,1752,1753,1752,1749,1762,1800,0,0,0,1846,0,0,1564,1556,1541,1530,1524,1530,1538,1553,0,2240,2247,2250,2253,2259,2262,2263,2258,2259,2264,2273,2279,2280,2275,2267,2267,2274,0,0,1512,1512,1515,1517,1517,1526,1533,0,0,2334,2332,2339,2345,2350,2347,2361,2365,2368,2359,2336,2304,0,0,0,0,0,0,0,0,0,0,0,0,0,0,0,0,0,0,0,0,0,0,0,2444,2458,2453,2457,2467,2469,2468,2455,2449,2441,2448,2457,2462,2464,2469,2466,2452,2447,2458,2463,2463,2467,2463,2464,2463,2471,2472,2476,2476,2472,2468,2468,2475,2478,2480,2478,2470,2467,2466,2468,2465,2461,2463,2461,2453,2445,2438,2429,2397,2373,2364,2357,2352,2344,2335,2323,2318,2316,2315,2313,2311,2311,2304,2306,2303,2308,2305,2305,2306,2309,2311,2311,2309,2314,2315,2318,2314,2312,2315,2319,2326,2332,2338,2339,2333,2331,2337,2345,2353,2361,2372,2382,2389,2396,2393,2398,2408,2417,2411,2403,2403,2410,2416,2420,2420,2429,2427,2429,2427,2430,2429,2425,2422,2419,2422,2424,2423,2422,2424,2432,2434,2434,2431,2430,2433,2434,2434,2427,2425,2424,2425,2424,2425,2422,2424,2425,2429,2428,2430,2431,2433,2431,2432,2432,2433,2435,2433,2433,2432,2435,2437,2438,2438,2439,2441,2447,2449,2451,2448,2449,2450,2450,2451,2451,2456,2453,2455,2457,2461,2465,2472,2474,2476,2475,2476,2479,2483,2481,2481,2485,2491,2487,2483,2482,2482,2469,0,0,0,0,1653,1655,1655,1650,1647,1642,1634,0,2516,2518,2521,2528,2523,2516,2500,0,2510,0,0,2472,2514,2534,2538,2532,2529,2531,2536,2538,2536,2539,2541,2545,2547,2549,2561,2589,2612,2622,2628,2631,2634,2633,2634,2633,2632,2628,2617,2606,2598,2601,2602,2605,2602,2606,2607,2610,2612,2617,2620,2620,2612,2614,0,0,0,0,0,0,0,0,0,0,0,0,0,0,0,0,0,0,0,0,0,0,0,0,0,0,0,1457,1422,1473,0,1400,0,2323,2318,2315,2308,2295,2290,0,0,0,0,0,0,0,0,0,0,0,0,0,0,0,0,0,0,0,0,0,0,0,0,0,0,0,0,0,0,0,2192,2194,2194,2196,2194,2192,2181,2159,0,0,0,0,0,0,0,0,0,0,0,0,0,0,0,0,0,0,0,0,0,0,0,0,0,0,0,0,0,0
0,0,0,0,0,0,0,0,0,0,1384,1395,1408,1420,1430,1436,1456,1465,1467,1462,1486,1483,1492,1506,1526,1536,1546,1550,1559,1566,1574,1586,1590,1590,1589,1591,1593,1587,1590,1591,1593,1591,1592,1596,1596,1594,1592,1590,1592,1595,0,1417,1394,1387,1394,1391,2488,2491,2487,2476,2462,0,0,1688,0,1735,1740,1746,1750,1747,1745,1744,1761,1796,0,0,0,1842,0,0,1561,1549,1538,1526,1528,1531,1537,1535,2261,2249,2256,2261,2265,2270,2275,2278,2277,2277,2282,2287,2296,2299,2299,2292,2283,0,0,1490,1507,1512,1516,1521,1517,1529,1543,0,2338,2342,2340,2341,2339,2336,2331,2333,2339,2341,2335,2332,2330,2327,2329,2327,2326,2321,2307,2308,2311,2303,2296,2299,0,0,0,0,0,0,0,0,0,0,0,2398,2443,2454,2456,2458,2461,2455,2460,2454,2453,2437,2439,2442,2446,2455,2455,2453,2442,2441,2447,2456,2450,2453,2448,2447,2444,2450,2455,2463,2467,2462,2462,2457,2461,2461,2465,2466,2459,2461,2458,2456,2455,2454,2453,2446,2439,2437,2430,2415,2385,2365,2349,2346,2343,2346,2338,2328,2319,2311,2307,2304,2306,2307,2302,2302,2301,2304,2301,2300,2301,2303,2306,2306,2307,2311,2316,2317,2314,2310,2313,2316,2320,2324,2329,2330,2328,2328,2333,2337,2345,2356,2366,2375,2380,2389,2388,2392,2394,2403,2401,2398,2399,2408,2412,2413,2413,2425,2426,2425,2418,2422,2425,2425,2423,2421,2421,2417,2414,2416,2425,2433,2435,2431,2427,2425,2432,2433,2429,2423,2421,2424,2422,2423,2423,2423,2424,2425,2425,2424,2425,2428,2429,2429,2427,2429,2429,2434,2432,2432,2428,2431,2435,2438,2439,2438,2439,2440,2443,2445,2443,2445,2447,2447,2449,2450,2455,2453,2455,2455,2460,2464,2469,2470,2475,2477,2478,2478,2480,2480,2482,2483,2487,2484,2484,2485,2488,2479,2453,0,0,0,0,1645,1644,1641,1641,1638,1633,0,0,2519,2524,2528,2528,2521,2519,2521,2525,2518,2516,2518,2528,2533,2536,2535,2539,2539,2540,2538,2539,2539,2544,2552,2561,2570,2591,2614,2623,2625,2626,2631,2633,2635,2637,2634,2628,2618,2607,2600,2595,2597,2599,2604,2604,2607,2607,2610,2611,2620,2621,2619,2611,2615,0,0,0,0,0,0,0,0,0,0,0,0,0,0,0,0,0,0,0,0,0,0,0,0,0,0,0,0,1431,1430,1380,1374,0,0,2299,2301,2299,2296,2289,2286,0,0,0,0,0,0,0,0,0,0,0,0,0,0,0,0,0,0,0,0,0,0,0,0,0,0,0,0,0,2181,2182,2192,2196,2199,2194,2190,2176,2156,0,0,0,0,0,0,0,0,0,0,0,0,0,0,0,0,0,0,0,0,0,0,0,0,0,0,0,0,0,0
0,0,0,0,0,0,0,0,0,1377,1394,1397,1405,1412,1425,1436,1456,1466,1471,1469,1472,1480,1493,1502,1519,1535,1541,1552,1555,1565,1577,1592,1595,1594,1594,1601,1601,1597,1592,1595,1597,1597,1596,1597,1597,1598,1596,1595,1598,1602,0,1409,1393,1387,1396,1375,2480,2484,2480,2477,2474,0,0,0,0,1728,1733,1739,1744,1744,1745,1746,1764,0,2131,0,1846,1842,0,0,1538,1536,1525,1525,1532,1536,1530,1523,0,2250,2257,2265,2272,2278,2279,2281,2282,2284,2287,2292,2300,2306,2308,2304,2285,0,0,1504,1503,1503,1507,1513,1515,1527,1547,2335,2344,2350,2350,2354,2349,2348,2344,2346,2347,2348,2345,2346,2344,2343,2335,2335,2329,2326,2317,2314,2311,2312,2310,2310,2306,2291,2282,2300,0,0,2459,2465,2464,2452,2445,2444,2449,2451,2454,2453,2452,2441,2440,2439,2440,2432,2433,2433,2439,2440,2435,2425,2417,2418,2426,2431,2428,2427,2422,2422,2419,2427,2430,2442,2449,2445,2449,2447,2448,2444,2445,2448,2450,2455,2455,2449,2446,2443,2443,2436,2434,2429,2416,2390,2372,2359,2344,2341,2338,2337,2330,2323,2318,2310,2303,2299,2302,2305,2303,2301,2300,2301,2302,2300,2299,2299,2303,2306,2307,2307,2311,2310,2311,2311,2314,2315,2318,2324,2328,2327,2323,2327,2332,2336,2340,2351,2364,2371,2375,2380,2384,2388,2389,2395,2392,2391,2394,2403,2408,2407,2405,2413,2414,2415,2409,2418,2420,2420,2416,2419,2420,2417,2414,2415,2421,2423,2424,2426,2425,2427,2430,2428,2425,2418,2422,2425,2426,2427,2424,2423,2423,2424,2422,2423,2423,2426,2425,2428,2431,2430,2429,2431,2430,2432,2428,2431,2434,2436,2436,2437,2439,2440,2439,2437,2437,2442,2444,2445,2446,2449,2452,2451,2452,2455,2460,2461,2463,2466,2475,2477,2476,2474,2476,2480,2480,2482,2478,2477,2480,2485,2492,2488,2465,0,0,0,0,1618,1632,1634,1632,1630,1623,1611,0,2520,2520,2529,2533,2532,2528,2531,2529,2525,2528,2531,2533,2534,2538,2539,2540,2539,2540,2540,2543,2546,2553,2565,2581,2598,2612,2624,2628,2628,2628,2629,2629,2632,2634,2631,2619,2604,2596,2592,2592,2594,2596,2602,2602,2607,2606,2611,2616,2623,2625,2620,2614,2634,0,0,1418,0,0,0,0,0,0,0,0,0,0,0,0,0,0,0,0,0,0,0,0,0,0,0,0,0,0,0,1399,1389,0,0,0,2286,2296,2292,2284,2280,2282,0,0,0,0,0,0,0,0,0,0,0,0,0,0,0,0,2146,0,0,0,0,0,0,0,0,0,0,0,0,2191,2196,2196,2196,2193,2188,2174,2154,0,0,0,0,0,0,0,0,0,0,0,0,0,0,0,0,0,0,0,0,0,0,0,0,0,0,0,0,0,0
0,0,0,0,0,0,0,0,0,1398,1410,1407,1407,1408,1423,1436,1452,1465,1477,1475,1475,1480,1509,1523,1519,1525,1539,1548,1558,1568,1581,1591,1595,1596,1602,1609,1607,1600,1598,1599,1599,1599,1598,1600,1603,1604,1604,1601,1604,1604,0,1407,1395,1394,1400,1412,2480,2490,2485,2481,2477,0,0,0,0,1727,1731,1735,1738,1737,1740,1740,1759,0,2129,2137,0,1840,0,0,1527,1520,1517,1514,1521,1522,1522,0,2267,2252,2256,2262,2272,2279,2281,2282,2285,2288,2290,2291,2298,2303,2305,2300,2287,2272,0,1502,1499,1494,1495,1502,1510,1528,0,2338,2344,2349,2352,2356,2353,2351,2350,2352,2352,2353,2353,2353,2352,2347,2344,2345,2344,2344,2334,2327,2319,2317,2314,2313,2304,2289,2274,2279,0,2445,2456,2455,2451,2449,2444,2447,2448,2451,2445,2440,2439,2431,2425,2422,2430,2432,2433,2432,2432,2432,2425,2417,2406,2407,2405,2408,2404,2408,2404,2407,2404,2411,2419,2427,2432,2432,2432,2430,2430,2426,2429,2431,2437,2442,2442,2437,2433,2433,2435,2429,2421,2411,2388,2375,2357,2351,2342,2341,2335,2330,2320,2316,2315,2310,2304,2300,2304,2303,2301,2296,2297,2297,2299,2297,2297,2295,2298,2302,2305,2307,2308,2306,2306,2310,2314,2312,2314,2319,2326,2324,2325,2329,2335,2340,2339,2349,2358,2367,2367,2372,2378,2381,2381,2386,2389,2390,2390,2394,2398,2399,2401,2406,2405,2409,2407,2416,2415,2413,2410,2414,2416,2416,2416,2418,2419,2418,2417,2420,2424,2425,2423,2419,2415,2415,2420,2425,2427,2427,2425,2427,2426,2423,2420,2421,2422,2424,2422,2425,2428,2430,2426,2427,2426,2430,2429,2430,2429,2431,2431,2434,2435,2434,2433,2429,2430,2433,2435,2437,2443,2446,2450,2443,2447,2453,2463,2464,0,0,2480,2480,2479,2478,2476,2478,2478,2479,2478,2476,2483,2487,2494,2492,2483,2433,0,0,0,0,1621,1626,1624,1623,1616,1609,0,2517,2517,2524,2532,2534,2531,2529,2528,2528,2537,2541,2543,2541,2542,2543,2544,2543,2544,2546,2555,2562,2573,2586,2602,2615,2624,2629,2630,2627,2625,2626,2628,2632,2630,2621,2603,2591,2585,2583,2585,2587,2591,2599,2603,2608,2608,2617,2620,2622,2618,0,0,0,0,0,0,0,0,0,0,0,0,0,0,1502,0,0,0,0,0,0,0,0,0,0,0,0,0,0,0,0,0,0,1400,1367,1401,0,0,0,2297,2299,2289,2284,2279,0,0,0,0,0,0,0,2276,0,2319,0,0,0,0,0,0,0,0,0,0,0,0,0,0,0,0,0,0,2196,2199,2200,2202,2201,2195,2188,2176,2158,0,0,0,0,0,0,0,0,0,0,0,0,0,0,0,0,0,0,0,0,0,0,0,0,0,0,0,0,0,0
0,1535,0,0,0,0,0,0,0,1405,1407,1406,1404,1403,1421,1438,1449,1458,1475,1477,1477,1494,1509,1524,1524,1522,1534,1549,1557,1565,1579,1589,1595,1597,1604,1611,1607,1604,1601,1606,1606,1605,1606,1606,1610,1611,1613,1608,1608,1602,0,1406,1398,1398,1412,1385,2477,2482,2485,2478,2479,0,0,0,0,1736,1738,1738,1737,1737,1739,1736,1751,0,0,0,0,1840,0,0,1530,1524,1519,1514,1506,1509,1513,0,0,2260,2263,2266,2276,2283,2285,2288,2290,2294,2295,2300,2304,2308,2307,2301,2285,2264,0,1504,1499,1490,1487,1489,1498,1509,1520,0,2342,2348,2353,2357,2356,2354,2354,2355,2354,2353,2353,2357,2357,2353,2350,2352,2351,2351,2342,2333,2324,2320,2318,2318,2310,2290,2270,2272,2359,2445,2447,2445,2440,2440,2437,2441,2443,2443,2434,2428,2427,2420,2416,2414,2419,2423,2422,2423,2416,2410,2406,2399,2397,2395,2392,2389,2389,2392,2397,2398,2396,2398,2406,2413,2413,2411,2412,2414,2415,2411,2414,2413,2420,2423,2428,2429,2426,2427,2423,2420,2412,2393,2377,2367,2353,2344,2338,2335,2330,2320,2313,2309,2309,2307,2304,2300,2301,2300,2299,2296,2295,2293,2296,2296,2297,2296,2299,2303,2305,2306,2302,2299,2300,2305,2310,2310,2313,2318,2325,2326,2326,2328,2333,2343,2343,2349,2355,2362,2363,2369,2377,2379,2375,2376,2382,2383,2383,2381,2385,2386,2389,2393,2393,2400,2401,2412,2405,2405,2400,2408,2412,2416,2415,2415,2414,2411,2410,2413,2417,2419,2416,2413,2414,2416,2420,2423,2427,2429,2427,2426,2424,2418,2417,2420,2422,2422,2418,2421,2426,2430,2427,2424,2422,2426,2425,2429,2426,2431,2430,2433,2431,2432,2428,2422,2420,2422,2428,2430,2436,0,0,0,0,0,0,0,0,0,0,0,2478,2480,2477,2478,2474,2480,2479,2481,2482,2487,2492,2492,2482,2469,0,0,0,0,1616,1622,1616,1615,1610,1609,0,0,2522,2527,2536,2540,2538,2533,2535,2537,2544,2545,2548,2546,2545,2544,2543,2543,2545,2549,2556,2572,2590,2602,2610,2616,2621,2627,2629,2627,2625,2622,2622,2622,2615,2596,2582,2576,2577,2576,2581,2587,2590,2597,2601,2607,2606,2615,2620,2600,0,1433,0,0,0,0,0,0,0,0,0,0,0,0,0,0,0,0,0,0,0,0,0,0,0,0,0,0,0,0,0,0,0,1398,1333,1280,1301,0,0,0,2293,2299,2293,2286,2286,0,0,0,0,0,0,0,2312,0,0,0,0,0,0,0,0,0,0,0,0,0,0,0,0,0,0,0,0,0,2204,2201,2200,2198,2194,2188,2180,2163,0,0,0,0,0,0,0,0,0,0,0,0,0,0,0,0,0,0,0,0,0,0,0,0,0,0,0,0,0,0
0,0,0,0,0,0,0,0,0,1404,1411,1410,1407,1403,1413,1434,1449,1461,1468,1471,1479,1490,1512,1520,1527,1528,1540,1549,1559,1566,1578,1588,1596,1602,1608,1612,1606,1607,1607,1613,1611,1609,1611,1611,1614,1612,1615,1611,1610,1603,0,1411,1393,1395,1409,0,2464,2468,2472,2473,2467,0,0,0,0,1738,1740,1739,1738,1737,1737,1736,1749,0,2081,0,1841,1839,0,0,1526,1517,1517,1503,1494,1493,1509,0,2248,2263,2268,2270,2277,2281,2287,2293,2296,2297,2297,2302,2306,2308,2307,2303,2285,0,0,0,1498,1491,1486,1487,1490,1495,1495,0,2342,2348,2352,2354,2353,2352,2353,2353,2356,2355,2358,2359,2362,2357,2355,2356,2355,2352,2347,2339,2329,2324,2322,2324,2314,2292,2273,2279,2372,2450,2447,2444,2440,2443,2437,2435,2428,2429,2421,2418,2415,2412,2410,2409,2405,2404,2401,2402,2397,2393,2388,2387,2386,2381,2376,2374,2378,2383,2388,2390,2390,2389,2395,2399,2402,2400,2402,2401,2400,2400,2404,2405,2405,2406,2404,2404,2407,2411,2409,2404,2393,2383,2369,2363,2352,2339,2336,2326,2321,2309,2308,2304,2304,2301,2297,2294,2294,2295,2294,2296,2292,2291,2289,2292,2294,2293,2297,2298,2303,2303,2303,2302,2303,2305,2309,2309,2309,2312,2318,2325,2325,2327,2329,2339,2341,2347,2352,2360,2362,2370,2375,2377,2373,2375,2381,2383,2379,2378,2379,2385,2387,2393,2393,2400,2401,2407,2402,2400,2402,2404,2409,2409,2409,2406,2405,2407,2412,2414,2414,2408,2407,2410,2414,2419,2414,2417,2419,2426,2423,2424,2417,2411,2412,2421,2422,2419,2413,2419,2418,2423,2417,2420,2415,2425,2424,2432,2426,2426,2422,2425,2424,2429,2426,2419,2410,2413,0,0,0,0,0,0,1557,1555,1555,1556,1559,1558,1557,0,2474,2473,2469,2471,2472,2480,2484,2484,2485,2488,2492,2490,2482,2471,2454,0,0,0,0,1615,1608,1608,1606,1607,0,0,2523,2527,2532,2536,2538,2537,2542,2542,2548,2551,2555,2552,2550,2550,2550,2550,2549,2549,2555,2569,2595,2608,2616,2616,2621,2624,2628,2624,2618,2612,2612,2609,2597,2575,2566,2565,2567,2568,2573,2577,2579,2589,2595,2599,2598,0,0,0,0,0,0,0,0,0,0,0,0,0,0,0,0,0,0,0,0,0,0,0,0,0,0,0,0,0,0,0,0,0,0,0,0,1367,0,1311,1372,1355,0,0,2300,2295,2291,2290,2287,2301,0,0,0,0,0,0,0,0,0,0,0,0,0,0,0,0,0,0,0,0,0,0,0,0,0,0,0,0,2200,2198,2201,2199,2197,2190,2183,2170,0,0,0,0,0,0,0,0,0,0,0,0,0,0,0,0,0,0,0,0,0,0,0,0,0,0,0,0,0,0
0,0,0,0,0,0,0,0,0,1409,1409,1412,1414,1417,1415,1431,1445,1456,1466,1482,1486,1495,1504,1519,1528,1536,1547,1550,1560,1570,1580,1590,1596,1606,1608,1614,1608,1611,1609,1615,1615,1615,1611,1612,1615,1616,1616,1612,1609,1601,0,1402,1390,1391,1407,0,0,2466,2474,2484,2465,2386,0,0,0,1743,1745,1745,1743,1743,1743,1745,1760,0,2082,0,1841,1842,0,0,1518,1512,1510,1504,1499,1501,1509,0,2248,2261,2270,2274,2277,2283,2290,2297,2297,2297,2295,2302,2307,2311,2311,2308,2293,0,0,0,1492,1489,1486,1484,1482,1481,1484,1487,0,2354,2353,2354,2351,2350,2351,2354,2357,2356,2357,2359,2361,2358,2355,2356,2355,2349,2347,2340,2333,2327,2324,2326,2313,2291,2275,2286,2384,2449,2445,2443,2440,2442,2436,2430,2424,2419,2412,2406,2404,2402,2403,2398,2393,2386,2383,2384,2382,2378,2375,2374,2374,2369,2366,2368,2375,2380,2382,2383,2384,2382,2385,2386,2390,2390,2393,2393,2388,2386,2387,2388,2390,2388,2389,2386,2390,2388,2388,2383,2378,2370,2361,2358,2352,2341,2333,2320,2311,2301,2302,2298,2298,2295,2292,2287,2286,2288,2289,2292,2292,2291,2288,2291,2294,2293,2295,2293,2296,2295,2299,2302,2303,2304,2305,2307,2307,2310,2314,2319,2318,2324,2326,2335,2334,2342,2350,2362,2366,2372,2372,2373,2373,2376,2377,2377,2374,2379,2383,2384,2382,2386,2388,2394,2394,2398,2395,2392,2393,2396,2399,2401,2404,2402,2404,2403,2412,2411,2412,2405,2405,2405,2410,2413,2408,2407,2409,2417,2417,2413,2403,2397,2402,2416,2416,2415,2409,2417,2415,2418,2415,2417,2416,2421,2422,2429,2426,2426,2422,2421,2418,2423,2421,2416,2406,0,0,1556,1556,1557,1558,1560,1560,1558,1558,1558,1560,1560,1559,0,0,2468,2464,2466,2470,2477,2481,2484,2483,2488,2491,2486,2480,2469,2462,0,0,0,0,1605,1604,1602,1600,1599,0,0,2524,2528,2531,2535,2538,2540,2545,2544,2547,2549,2554,2554,2551,2554,2559,2561,2558,2555,2558,2570,2592,2605,2612,2612,2617,2620,2623,2615,2602,2585,2577,2572,2566,2554,2551,2553,2559,2564,2568,2571,2577,2586,2591,2583,0,0,0,0,0,0,0,0,0,0,0,0,0,0,0,0,0,0,0,0,0,0,0,0,0,0,0,0,0,0,0,0,0,0,0,0,0,0,1352,1343,0,0,0,0,2289,2289,2282,2289,2292,2289,0,0,0,0,0,0,2334,2341,0,0,0,0,0,0,0,0,0,0,0,0,0,0,0,0,0,0,0,0,2201,2199,2199,2196,2196,2189,2184,2169,0,0,0,0,0,0,0,0,0,0,0,0,0,0,0,0,0,0,0,0,0,0,0,0,0,0,0,0,0,0
0,0,0,0,0,0,0,0,0,1403,1405,1415,1420,1428,1431,1432,1442,1450,1475,1495,1505,1499,1505,1517,1533,1544,1556,1557,1564,1575,1579,1587,1590,1605,1611,1618,1612,1614,1613,1618,1617,1616,1613,1616,1620,1620,1616,1615,1612,1611,0,1406,1391,1393,1405,1450,0,0,0,0,0,0,0,0,0,1739,1743,1748,1746,1746,1744,1748,1764,0,2092,0,1840,1839,0,0,1496,1494,1501,1496,1499,1493,1506,1504,2248,2259,2266,2269,2272,2278,2284,2288,2290,2292,2293,2298,2305,2310,2313,2312,2307,2279,0,0,1484,1483,1483,1483,1482,1482,1482,1479,1475,0,0,0,0,0,0,0,0,0,0,0,0,0,0,0,0,0,0,2343,2335,2327,2324,2324,2314,2290,2276,2289,2395,0,0,2445,2444,2445,0,0,2424,2415,2407,2402,2399,2398,2395,2390,2384,2375,2372,2375,2376,2371,2367,2363,2363,2359,2358,2360,2366,2371,2370,2373,2377,2377,2380,2380,2386,2385,2387,2385,2380,2376,2376,2378,2379,2376,2372,2368,2371,2369,2372,2367,2364,2355,2352,2346,2342,2332,2328,2314,2302,2292,2293,2290,2289,2286,2283,2281,2280,2283,2283,2286,2285,2287,2285,2290,2293,2291,2290,2287,2291,2291,2297,2301,2301,2301,2301,2303,2303,2309,2313,2317,2316,2321,2328,2331,2332,2336,2347,2358,2362,2366,2366,2369,2369,2373,2372,2373,2370,2378,2381,2383,2377,2380,2381,2386,2386,2391,2390,2387,2390,2388,2393,2390,2396,2396,2401,2400,2405,2405,2408,2402,2399,2399,2404,2412,2409,2406,2401,2407,2408,2405,2397,2396,2399,2411,2408,2410,2407,2413,2409,2409,2408,2413,2410,2416,2417,2422,2422,2418,2415,2412,2412,2414,2414,2412,0,0,1551,1554,1556,1559,1561,1562,1562,1561,1560,1561,1562,1563,1561,0,0,2460,2459,2463,2471,2476,2478,2480,2481,2482,2484,2478,2474,2464,0,0,0,0,1588,1598,1600,1601,1599,1595,0,0,2522,2529,2533,2536,2535,2536,2539,2541,2546,2550,2555,2559,2561,2573,2583,2589,2581,2571,2572,2585,2601,2605,2611,2606,2610,2608,2605,2587,2566,2552,2547,2543,2542,2544,2542,2548,2554,2560,2562,2562,2567,2576,2579,2575,0,0,0,0,0,0,0,0,0,0,0,0,0,0,0,0,0,0,0,0,0,0,0,0,0,0,0,0,0,0,0,0,0,0,0,1496,0,1353,1348,1360,0,0,0,0,0,2287,2306,2296,2292,2284,0,0,0,0,0,0,2369,2340,0,0,0,0,0,0,0,0,0,0,0,0,0,0,0,0,0,0,0,0,2204,2198,2198,2194,2192,2187,2182,2170,0,0,0,0,0,0,0,0,0,0,0,0,0,0,0,0,0,0,0,0,0,0,0,0,0,0,0,0,0,0
0,0,0,0,0,0,0,0,0,1388,1400,1409,1422,1434,1446,1442,1438,1450,1472,1499,1501,1494,1502,1520,1543,1553,1554,1556,1565,1579,1583,1586,1586,1600,1611,1617,1615,1615,1621,1622,1622,1617,1617,1623,1628,1629,1624,1621,1616,1613,0,1407,1395,1397,1412,0,0,0,0,0,0,0,0,1757,1740,1741,1745,1751,1754,1752,1746,1750,1763,0,2079,0,0,1844,0,0,1484,1485,1489,1495,1491,1493,1502,1507,2238,2253,2262,2264,2270,2274,2278,2282,2285,2291,2294,2298,2305,2309,2313,2313,2314,2312,2303,0,0,1483,1483,1484,1483,1484,1483,1478,1476,1473,1469,0,0,0,0,0,0,0,0,0,0,0,0,0,0,0,0,0,0,0,0,0,0,0,0,0,0,0,0,0,0,0,0,0,0,0,0,0,0,0,0,0,0,0,0,0,0,0,0,0,0,0,0,0,0,0,0,0,0,0,0,0,0,0,0,0,0,0,0,0,0,0,0,0,0,0,0,0,0,0,2338,2336,2323,2322,2317,2305,2290,2282,2280,2279,2276,2275,2273,2272,2273,2274,2274,2274,2277,2276,2278,2285,2290,2284,2281,2281,2284,2285,2288,2292,2292,2291,2290,2294,2300,2304,2311,2309,2311,2317,2324,2326,2324,2327,2337,2348,2354,2358,2359,2361,2361,2362,2367,2369,2369,2373,2376,2371,2364,2369,2374,2375,2374,2382,2380,2373,2376,2380,2383,2384,2393,2398,2404,2398,2395,2394,2398,2402,2397,2396,2397,2405,2405,2400,2395,2397,2400,2397,2395,2396,2395,2402,2399,2406,2405,2408,2405,2403,2406,2406,2406,2406,2407,2409,2410,2410,2409,2408,2407,2399,2391,0,0,1573,1553,1556,1558,1561,1562,1563,1562,1563,1562,1562,1562,1562,1561,0,0,2460,2457,2460,2467,2473,2475,2477,2476,2472,2471,2468,2468,2450,0,1552,1562,1573,1585,1591,1596,1598,1598,1595,0,0,2522,2528,2535,2540,2537,2534,2535,2539,2545,2545,2551,2559,2578,2593,2603,2606,2602,2592,2592,2599,2607,2604,2601,2589,2578,2566,2557,2538,2531,2530,2530,2529,2531,2539,2540,2545,2547,2553,2554,2558,2565,2571,2580,0,0,0,0,0,0,0,0,0,0,0,0,0,0,0,0,0,0,0,0,0,0,0,0,0,0,0,0,0,0,0,0,0,0,0,1506,1490,1405,1324,1341,1350,1358,0,0,0,0,2299,2325,2314,2294,2293,2292,2319,0,0,0,0,2333,0,2324,2307,0,0,0,0,0,0,0,0,0,0,0,0,0,0,0,0,0,2207,2206,2203,2198,2191,2186,2182,2178,0,0,0,0,0,0,0,0,0,0,0,0,0,0,0,0,0,0,0,0,0,0,0,0,0,0,0,0,0,0,0
0,0,0,0,0,0,0,0,0,1394,1400,1408,1419,1436,1452,1458,1440,1451,1465,1489,1493,1493,1503,1523,1546,1547,1554,1556,1566,1575,1583,1587,1593,1603,1614,1620,1621,1622,1627,1627,1625,1619,1622,1627,1634,1635,1634,1630,1625,1617,0,1408,1393,1395,1410,0,1661,1695,1729,1749,1764,1748,1747,1746,1742,1740,1743,1749,1755,1756,1747,1748,1758,0,2066,0,1849,1847,0,0,1479,1480,1481,1481,1483,1486,1497,1510,2241,2253,2262,2263,2270,2270,2273,2277,2284,2289,2295,2300,2307,2309,2312,2314,2317,2321,2322,2316,0,1480,1477,1482,1485,1486,1481,1475,1473,1473,1471,1469,1469,1472,1475,1475,1473,1474,1473,1474,1473,1476,1479,1481,1478,1473,1473,1476,1483,1483,1482,1479,1479,1479,1484,1488,1488,1484,1484,1487,1487,1488,1486,1486,1486,1490,1491,1488,1484,1482,1487,0,0,0,0,0,0,0,0,0,0,0,0,0,0,0,0,0,0,0,0,0,0,0,0,0,0,0,0,0,0,0,0,0,0,0,0,0,0,0,0,1536,1533,1528,1521,1519,0,0,0,0,0,0,0,0,0,0,0,0,0,0,0,0,0,0,0,0,0,0,0,0,0,0,0,0,0,0,0,0,0,0,0,0,0,0,0,0,0,0,0,2344,0,0,0,0,0,0,2367,2358,2352,0,0,2365,0,0,2371,2356,2363,0,2378,0,2390,2398,2401,0,2384,2398,2392,0,0,2392,2391,0,0,0,2389,0,2389,2388,2390,2396,0,0,0,2401,0,0,0,2402,0,0,2401,2399,2397,2396,0,2397,2397,2402,0,0,0,0,1557,1556,1555,1558,1559,1560,1561,1563,1562,1562,1561,1563,1562,1562,1562,1561,0,0,0,0,0,0,0,0,0,0,0,0,0,0,1564,1564,1571,1575,1581,1585,1587,1589,1591,1590,0,2520,2521,2528,2535,2539,2536,2533,2533,2537,2545,2547,2553,2563,2585,2600,2610,2612,2611,2602,2602,2602,2604,2592,2577,2547,2532,2523,2523,2517,2516,2519,2520,2524,2527,2535,2539,2541,2541,2544,2550,2554,2558,2563,2562,0,0,0,0,0,0,0,0,0,0,0,0,0,0,0,0,0,0,0,0,0,0,0,0,0,0,0,0,0,0,0,0,0,0,0,0,1459,1422,0,0,1354,1383,1347,0,0,0,2333,2324,2312,2293,2285,2292,0,0,0,0,2333,0,0,0,0,0,0,0,0,0,0,0,0,0,0,0,0,0,0,0,0,0,0,2204,2198,2195,2192,2188,2183,2176,0,0,0,0,0,0,0,0,0,0,0,0,0,0,0,0,0,0,0,0,0,0,0,0,0,0,0,0,0,0,0
0,1445,0,0,0,0,0,0,0,1388,1401,1404,1415,1429,1452,1453,1453,1457,1466,1476,1485,1493,1508,1525,1532,1532,1543,1551,1559,1568,1578,1588,1599,1606,1614,1621,1626,1629,1629,1630,1629,1627,1629,1631,1634,1636,1635,1630,1623,1616,0,1398,1390,1394,1412,0,1668,1681,1703,1730,1748,1742,1737,1739,1745,1743,1744,1748,1755,1764,1757,1754,1760,0,2056,0,1851,0,0,0,1485,1481,1475,1471,1469,1482,1497,1506,2240,2249,2257,2264,2271,2274,2276,2280,2287,2293,2298,2303,2308,2311,2313,2316,2320,2324,2329,2331,2325,0,1476,1483,1486,1487,1481,1477,1474,1473,1470,1469,1470,1472,1473,1473,1473,1474,1474,1476,1477,1478,1477,1476,1474,1473,1475,1479,1483,1482,1483,1478,1478,1478,1481,1483,1485,1485,1486,1487,1488,1488,1488,1489,1490,1489,1490,1486,1487,1487,1491,1489,1488,1487,1489,1491,1492,1492,1493,1492,1492,1493,1494,1496,1495,1494,1494,1498,1499,1498,1497,1495,1494,1495,1497,1499,1499,1500,1499,1501,1502,1503,1501,1503,1503,1504,1505,1507,1508,1510,1514,1516,1512,1513,1510,1510,1507,1508,1510,1515,1517,1516,1512,1508,1512,1513,1518,1521,1525,1524,1523,1521,1524,1526,1527,1527,1525,1528,1532,1529,1531,1528,1530,1527,1530,1531,1530,1528,1530,1534,1534,1531,1525,1525,1530,1531,1533,1531,1538,1536,1531,1530,1531,1527,0,1521,1534,1543,1544,0,1541,1548,1541,1539,1541,1536,1531,1530,1532,1537,0,1542,0,1550,1547,1541,1537,0,1541,1545,1552,1554,0,0,0,0,0,1560,0,1554,1550,0,0,0,1553,0,0,1564,0,0,1547,0,1565,0,1565,0,0,1549,0,1561,1563,1562,1560,1557,1556,1558,1559,1560,1561,1562,1562,1563,1563,1564,1562,1563,1564,1566,1568,0,0,0,0,0,0,0,0,0,1569,1582,1581,1575,1571,1570,1570,1571,1577,1580,1583,1581,1582,0,0,2521,2520,2525,2528,2533,2535,2533,2535,2537,2542,2544,2549,2558,2575,2587,2599,2602,2607,2600,2597,2588,2580,2557,2534,2518,2514,2512,2511,2508,2509,2513,2514,2518,2521,2530,2535,2537,2537,2540,2548,2552,2556,2555,0,0,0,0,0,0,0,0,0,0,0,0,0,0,0,0,0,0,0,0,1459,1435,0,1455,0,0,0,0,0,0,0,1449,0,0,0,0,0,0,1440,0,0,1395,1406,1362,0,1316,0,0,2313,2312,2294,2288,2282,2293,0,0,0,0,0,0,0,0,0,0,0,0,0,0,0,0,0,0,0,0,0,0,0,0,0,2178,2194,2196,2196,2194,2191,2182,2169,0,0,0,0,0,0,0,0,0,0,0,0,0,0,0,0,0,0,0,0,0,0,0,0,0,0,0,0,0,0,0
0,0,0,0,0,0,0,0,0,1400,1405,1409,1411,1430,1451,1459,1454,1466,1472,1485,1481,1481,1513,1516,1520,1521,1535,1545,1554,1562,1572,1583,1598,1609,1615,1622,1626,1632,1630,1633,1629,1630,1633,1633,1634,1633,1632,1628,1626,1622,0,1396,1387,1389,1411,0,1679,1683,1699,1728,1740,1734,1731,1733,1739,1743,1744,1745,1749,1754,1752,1750,1757,0,2045,0,1847,0,0,0,1479,1473,1472,1467,1470,1480,1493,1497,2245,2252,2257,2262,2271,2276,2281,2285,2290,2294,2297,2302,2307,2311,2315,2319,2323,2326,2327,2328,2334,2341,0,0,1481,1479,1477,1475,1473,1472,1470,1470,1471,1471,1472,1471,1474,1474,1475,1476,1478,1477,1475,1474,1474,1475,1475,1478,1479,1479,1480,1478,1478,1477,1480,1483,1485,1484,1483,1483,1483,1481,1482,1483,1485,1483,1483,1482,1484,1485,1487,1487,1486,1486,1485,1486,1486,1486,1488,1488,1489,1490,1493,1495,1495,1493,1495,1496,1497,1495,1494,1495,1493,1495,1494,1497,1495,1497,1495,1497,1499,1499,1500,1500,1501,1502,1503,1504,1503,1505,1505,1508,1507,1509,1506,1507,1506,1508,1509,1510,1511,1508,1508,1506,1508,1509,1512,1513,1514,1512,1513,1513,1514,1515,1515,1514,1514,1516,1519,1518,1518,1515,1517,1518,1521,1522,1521,1522,1522,1524,1524,1523,1522,1521,1525,1524,1526,1525,1530,1527,1525,1525,1526,1524,1522,1524,1530,1533,1534,1535,1536,1533,1532,1531,1533,1529,1527,1527,1531,1532,1537,1539,1543,1543,1544,1542,1541,1538,1537,1538,1541,1544,1543,1540,1539,1541,1545,1549,1548,1548,1546,1550,1548,1552,1551,1550,1549,1553,1553,1552,1548,1553,1555,1559,1554,1554,1551,1553,1555,1556,1557,1558,1557,1557,1558,1559,1559,1558,1558,1558,1559,1561,1562,1563,1562,1565,1567,1568,1566,1563,1564,1566,1566,1563,1566,1567,1567,1566,1570,1577,1580,1578,1575,1574,1573,1573,1577,1580,1585,1582,1580,0,2519,2519,2518,2524,2527,2530,2534,2533,2535,2537,2542,2548,2553,2557,2564,2570,2579,2586,2595,2587,2573,2554,2541,2523,2510,2503,2507,2508,2507,2500,2500,2505,2509,2514,2517,2525,2529,2530,2532,2539,2552,2556,2555,2550,0,0,0,0,0,0,0,0,0,0,0,0,0,0,0,0,0,0,0,1453,1446,1484,1446,0,0,0,0,0,0,0,0,1441,0,0,0,0,0,0,0,0,0,1406,1385,0,1324,1321,0,0,2300,2309,2301,2291,2287,2283,2268,0,0,0,0,0,0,0,0,0,0,0,0,0,0,0,0,0,0,0,0,0,0,0,0,0,2192,2203,2202,2195,2189,2178,2166,0,0,0,0,0,0,0,0,0,0,0,0,0,0,0,0,0,0,0,0,0,0,0,0,0,0,0,0,0,0,0
0,0,0,0,0,0,0,0,0,1395,1404,1404,1412,1432,1455,1457,1461,1473,1486,1489,1480,1486,1504,1515,1514,1519,1533,1545,1554,1561,1568,1580,1596,1608,1615,1620,1626,1634,1636,1637,1634,1631,1634,1636,1638,1635,1631,1628,1630,1623,0,1398,1391,1397,1416,0,1684,1692,1716,1729,1734,1732,1729,1735,1740,1745,1743,1744,1749,1751,1750,1747,1755,0,0,0,1849,1839,0,0,1471,1468,1469,1464,1468,1473,1481,0,0,2254,2258,2261,2270,2278,2284,2288,2292,2297,2302,2305,2309,2314,2319,2321,2325,2327,2329,2331,2336,2343,2349,2367,0,0,1473,1476,1475,1474,1472,1471,1472,1472,1472,1472,1474,1474,1476,1476,1477,1474,1473,1471,1473,1475,1477,1478,1477,1478,1479,1476,1476,1476,1480,1482,1483,1484,1483,1482,1482,1481,1482,1482,1485,1483,1483,1484,1487,1488,1487,1485,1484,1486,1486,1487,1487,1488,1488,1488,1489,1489,1492,1494,1493,1493,1494,1496,1497,1495,1494,1495,1495,1498,1497,1498,1496,1496,1494,1495,1497,1497,1498,1499,1499,1500,1502,1504,1503,1503,1502,1502,1503,1505,1506,1508,1507,1508,1507,1509,1509,1508,1506,1505,1506,1507,1509,1510,1512,1510,1512,1511,1513,1513,1512,1512,1512,1513,1514,1513,1514,1513,1514,1516,1517,1517,1518,1522,1523,1524,1524,1521,1519,1519,1522,1522,1523,1524,1527,1526,1525,1525,1525,1525,1526,1528,1530,1532,1532,1535,1533,1530,1527,1528,1531,1529,1529,1528,1529,1531,1534,1535,1537,1538,1542,1542,1542,1537,1535,1535,1537,1540,1542,1541,1540,1541,1541,1546,1545,1546,1544,1548,1548,1551,1547,1547,1546,1549,1549,1549,1547,1550,1550,1552,1550,1551,1550,1551,1552,1553,1557,1555,1556,1556,1557,1558,1560,1560,1560,1558,1559,1561,1562,1562,1563,1567,1570,1569,1566,1563,1564,1563,1564,1563,1565,1566,1565,1566,1570,1574,1576,1575,1574,1573,1572,1572,1577,1580,1587,1587,0,2525,2520,2521,2519,2524,2528,2532,2534,2534,2537,2538,2539,2543,2549,2554,2559,2561,2561,2561,2565,2556,2532,2516,2506,2504,2498,2500,2502,2504,2498,2490,2490,2498,2505,2510,2515,2524,2527,2530,2531,2539,2553,2559,2554,2555,1428,0,0,0,1392,1387,0,0,0,0,0,0,0,0,0,0,0,0,0,0,1446,1404,1405,0,0,0,0,0,0,0,0,0,0,0,0,0,0,0,1440,0,0,1370,0,1386,1347,1347,0,0,0,2310,2311,2300,2292,2282,2274,0,0,0,0,0,0,0,0,0,0,0,0,0,0,0,0,0,0,0,0,0,0,0,0,0,2184,2199,2201,2193,2183,2173,2161,0,0,0,0,0,0,0,0,0,0,0,0,0,0,0,0,0,0,0,0,0,0,0,0,0,0,0,0,0,0,0
0,0,0,0,0,0,0,0,0,1389,1398,1405,1414,1434,1454,1454,1466,1485,1495,1490,1493,1498,1511,1520,1521,1525,1537,1548,1554,1562,1571,1583,1599,1613,1622,1623,1630,1637,1641,1641,1638,1631,1635,1638,1648,1642,1641,1638,1642,1642,0,1399,1395,1399,1421,0,1682,1699,1725,1731,1733,1735,1735,1741,1743,1745,1744,1744,1747,1747,1747,1744,1752,0,0,1879,1850,0,0,0,1468,1467,1466,1465,1468,1470,1474,0,0,2255,2261,2262,2270,2275,2285,2287,2292,2295,2302,2304,2309,2312,2318,2321,2324,2327,2330,2335,2337,2340,2342,2347,2354,0,0,1465,1470,1476,1476,1475,1471,1470,1471,1471,1474,1474,1478,1476,1476,1471,1472,1471,1474,1476,1477,1478,1477,1478,1478,1478,1478,1478,1481,1483,1485,1484,1483,1482,1482,1481,1482,1480,1482,1483,1485,1486,1487,1487,1486,1484,1484,1486,1486,1487,1485,1487,1488,1488,1490,1491,1492,1492,1493,1494,1494,1494,1495,1495,1494,1495,1497,1500,1498,1498,1496,1496,1496,1497,1496,1497,1499,1502,1501,1503,1503,1505,1504,1504,1502,1501,1503,1505,1507,1508,1508,1509,1509,1508,1507,1507,1507,1508,1507,1509,1510,1509,1511,1511,1513,1513,1513,1515,1513,1512,1513,1513,1514,1514,1514,1514,1514,1517,1518,1517,1518,1521,1525,1526,1525,1520,1520,1521,1524,1523,1523,1523,1525,1526,1527,1526,1527,1527,1530,1531,1531,1532,1531,1533,1531,1529,1527,1529,1531,1531,1531,1531,1531,1531,1534,1534,1536,1539,1543,1544,1542,1539,1537,1536,1538,1540,1542,1542,1543,1543,1542,1543,1544,1547,1546,1549,1549,1550,1547,1547,1545,1547,1549,1549,1548,1551,1552,1553,1550,1550,1550,1552,1553,1555,1556,1555,1555,1557,1559,1562,1563,1562,1562,1560,1560,1560,1563,1564,1566,1567,1569,1569,1568,1566,1565,1564,1564,1563,1564,1565,1565,1567,1569,1570,1571,1570,1573,1570,1575,1575,1580,1581,1585,0,0,2516,2516,2516,2515,2520,2526,2531,2533,2537,2541,2541,2540,2541,2550,2555,2557,2549,2544,2534,2530,2521,2507,2496,2485,2486,2486,2492,2495,2496,2489,2480,2479,2485,2493,2499,2509,2517,2521,2525,2527,2535,2542,2549,2545,0,1424,1441,0,0,0,0,0,0,0,0,0,0,0,0,0,1404,0,0,1433,1446,1465,1383,0,0,0,1476,0,0,0,0,0,0,0,0,0,0,0,1438,1377,0,1393,0,1372,1352,1317,1361,1390,0,0,2306,2306,2303,2296,2285,2281,2276,0,0,0,0,0,0,0,0,0,0,0,0,0,0,0,0,0,0,0,0,0,0,0,0,2172,2183,2189,2181,2167,2156,2145,2114,0,0,0,0,0,0,0,0,0,0,0,0,0,0,0,0,0,0,0,0,0,0,0,0,0,0,0,0,0,0
0,0,0,0,0,0,0,0,0,1378,1395,1403,1419,1443,1435,1442,1461,1482,1486,1484,1493,1511,1519,1528,1525,1530,1545,1559,1561,1565,1572,1584,1599,1614,1622,1625,1630,1636,1641,1643,1644,1641,1645,1649,1655,1649,1648,1646,1651,1639,0,1399,1402,1407,1423,0,1678,1701,1730,1736,1737,1739,1739,1745,1745,1746,1744,1744,1746,1748,1748,1748,1754,0,0,0,1848,0,0,0,1473,1466,1463,1464,1467,1466,1467,0,2253,2262,2269,2269,2271,2275,2283,2287,2292,2296,2303,2306,2310,2314,2319,2322,2324,2329,2334,2338,2338,2340,2341,2344,2345,2351,2358,0,0,0,0,1476,1472,1474,1474,1473,1471,1473,1475,1474,1474,1472,1472,1471,1473,1474,1477,1478,1478,1479,1478,1479,1482,1484,1486,1483,1483,1484,1486,1486,1488,1488,1487,1482,1483,1486,1491,1492,1493,1491,1488,1486,1486,1489,1491,1492,1490,1491,1491,1491,1491,1492,1492,1492,1491,1493,1493,1495,1496,1498,1497,1497,1499,1501,1501,1499,1500,1499,1499,1500,1497,1499,1499,1502,1502,1506,1507,1508,1508,1507,1505,1502,1504,1504,1508,1508,1508,1508,1508,1508,1508,1510,1511,1511,1510,1510,1511,1512,1514,1515,1516,1516,1514,1516,1517,1517,1516,1514,1514,1513,1514,1516,1517,1519,1520,1517,1518,1520,1525,1526,1525,1522,1521,1522,1524,1524,1524,1524,1525,1526,1527,1527,1528,1529,1531,1531,1532,1532,1533,1533,1532,1531,1531,1532,1533,1533,1533,1534,1533,1534,1534,1534,1535,1537,1541,1543,1543,1541,1538,1538,1539,1539,1540,1541,1544,1545,1542,1545,1545,1548,1548,1549,1549,1548,1545,1545,1545,1547,1550,1550,1551,1552,1551,1549,1545,1545,1547,1549,1551,1554,1557,1558,1558,1557,1558,1560,1562,1562,1564,1564,1563,1562,1564,1565,1569,1569,1572,1570,1570,1566,1564,1565,1566,1566,1566,1565,1565,1567,1568,1569,1569,1569,1573,1571,1577,1575,1581,1567,0,0,2509,2510,2512,2513,2515,2517,2523,2527,2530,2534,2536,2536,2534,2537,2547,2551,2549,2534,2524,2512,2506,2504,2496,2488,2478,2478,2477,2486,2488,2488,2479,2477,2477,2482,2485,2489,2499,2508,2517,2525,2530,2539,2536,2538,2520,0,0,0,0,0,0,0,0,0,0,0,0,0,0,0,1383,1408,0,1428,1416,1454,1427,1406,1419,0,0,1483,0,0,0,0,0,0,0,0,0,0,0,1439,1400,0,0,0,1327,1394,1321,1379,0,0,0,2307,2294,2304,2300,2297,2294,2287,0,0,0,0,0,0,0,0,0,0,0,0,0,0,0,0,0,0,0,0,0,0,0,0,0,2144,2156,2136,2123,2118,2098,2079,0,0,0,0,0,0,0,0,0,0,0,0,0,0,0,0,0,0,0,0,0,0,0,0,0,0,0,0,0,0
0,0,0,0,0,0,0,0,0,1386,1397,1406,1415,1415,1420,1438,1472,1479,1482,1496,1503,1514,1530,1530,1532,1535,1544,1557,1561,1571,1576,1587,1599,1612,1622,1623,1628,1632,1638,1646,1654,1659,1668,1672,1669,1652,1648,0,0,0,1410,1399,1401,1403,1420,0,1675,1706,1731,1735,1737,1740,1741,1744,1743,1743,1744,1745,1746,1746,1749,1751,0,0,0,0,1846,0,0,1472,1461,1462,1459,1463,1468,1467,1470,0,0,2265,2273,2275,2276,2278,2284,2285,2292,2296,2302,2305,2310,2314,2319,2322,2326,2330,2335,2339,2339,2341,2341,2344,2346,2351,2353,2354,2356,0,0,0,0,0,0,1471,1468,1472,1471,1473,1474,1476,1476,1475,1475,1475,1475,1477,1477,1477,1477,1479,1484,1492,1494,1486,1483,1485,1487,1489,1490,1492,1488,1483,1483,1487,1490,1493,1494,1494,1490,1489,1491,1493,1495,1498,1497,1495,1494,1494,1494,1495,1495,1493,1492,1492,1496,1497,1498,1501,1502,1502,1502,1502,1502,1500,1500,1500,1499,1502,1501,1505,1505,1508,1509,1512,1512,1510,1510,1511,1511,1508,1509,1509,1511,1511,1512,1512,1516,1514,1513,1516,1521,1521,1517,1517,1519,1521,1519,1521,1519,1522,1520,1524,1525,1525,1524,1520,1518,1516,1519,1524,1525,1525,1525,1523,1522,1521,1526,1528,1528,1527,1527,1528,1529,1529,1529,1529,1528,1528,1529,1530,1530,1530,1531,1531,1532,1532,1535,1534,1532,1532,1535,1537,1535,1534,1536,1539,1539,1537,1538,1539,1539,1539,1540,1542,1543,1543,1542,1543,1541,1540,1538,1539,1542,1545,1546,1548,1550,1553,1552,1551,1549,1547,1546,1547,1548,1549,1553,1554,1554,1555,1552,1547,1542,1541,1543,1546,1549,1554,1559,1562,1561,1561,1561,1562,1563,1563,1564,1565,1563,1563,1565,1568,1570,1568,1570,1568,1569,1568,1567,1569,1569,1568,1569,1569,1569,1569,1566,1567,1568,1569,1572,1571,1576,1576,0,0,2499,2500,2503,2506,2509,2510,2514,2515,2521,2522,2526,2530,2534,2535,2535,2538,2541,2539,2530,2511,2501,2490,2492,2491,2490,2483,2477,2473,2474,2480,2482,2479,2472,2474,2476,2481,2482,2485,2492,2498,2507,2516,2523,2533,2529,2527,0,0,0,0,1382,0,0,0,0,0,0,0,0,0,0,1422,1421,1420,1421,1406,1400,0,1400,1433,1434,1453,0,0,0,0,0,0,0,0,0,0,0,0,0,1389,0,0,0,0,0,1357,1387,0,0,0,0,0,2315,2310,2310,2303,2295,2272,0,0,0,0,0,0,0,0,0,0,0,0,0,0,0,0,0,0,0,0,0,0,0,0,0,0,0,0,0,0,0,0,0,0,0,0,0,0,0,0,0,0,0,0,0,0,0,0,0,0,0,0,0,0,0,0,0,0,0,0,0,0
0,0,0,0,0,0,0,0,0,1401,1410,1407,1411,1400,1419,1439,1472,1475,1477,1484,1495,1506,1521,1525,1528,1533,1545,1557,1569,1576,1579,1587,1596,1609,1616,1619,1625,1630,1641,1652,1661,1675,1680,1687,1681,0,0,0,0,0,0,1397,1403,1405,1422,0,1677,1702,1729,1733,1735,1738,1740,1742,1741,1741,1743,1745,1747,1747,1751,1754,0,0,0,0,0,0,0,0,1454,1457,1460,1461,1463,1465,1466,0,0,2268,2274,2280,2281,2283,2286,2287,2293,2297,2300,2304,2309,2316,2320,2325,2328,2332,2334,2336,2339,2342,2343,2345,2347,2349,2351,2353,2356,2357,2357,2356,2355,0,0,0,0,1461,1469,1471,1472,1476,1476,1476,1475,0,0,0,0,0,0,0,0,0,0,0,0,0,0,0,0,0,0,0,0,0,0,0,0,0,0,0,0,0,0,0,0,0,0,0,0,0,0,0,0,0,0,0,0,0,0,0,0,0,0,0,0,0,0,0,0,0,0,1522,1520,1520,1519,1519,1521,1524,1524,1524,1525,1525,1529,1531,1532,1531,1538,1539,1538,1538,1542,1540,1532,1534,1534,1541,1537,1534,1531,1535,1537,1544,1546,1546,1543,1539,1534,1530,1539,1548,1545,1540,1539,1538,1537,1532,1534,1537,1539,1539,1536,1535,1535,1537,1538,1539,1538,1536,1535,1538,1536,1535,1535,1537,1537,1538,1540,1536,1535,1537,1542,1546,1544,1542,1542,1547,1547,1544,1545,1546,1544,1543,1542,1540,1544,1545,1543,1547,1546,1543,1540,1542,1543,1549,1553,1561,1563,1565,1560,1554,1550,1545,1546,1550,1553,1555,1556,1556,1557,1559,1551,1542,1537,1536,1540,1542,1547,1554,1563,1564,1563,1561,1561,1561,1563,1564,1567,1567,1566,1565,1565,1566,1568,1568,1570,1569,1568,1565,1567,1570,1571,1568,1569,1568,1568,1568,1564,1567,1566,0,0,0,0,0,2477,2486,2489,2496,2502,2507,2510,2513,2520,2521,2523,2521,2524,2528,2533,2537,2536,2532,2525,2517,2507,2494,2487,2483,2486,2486,2483,2480,2477,2475,2472,2473,2473,2470,2466,2472,2476,2481,2477,2482,2484,2491,2494,2508,2514,2524,2519,2526,0,0,0,0,0,0,0,0,0,0,0,0,0,0,0,0,0,1431,0,0,0,1444,1483,1471,1426,0,0,0,0,0,0,0,0,0,0,0,0,0,0,0,0,1402,0,1334,0,0,0,0,0,0,0,0,2317,2309,2298,2302,2291,2270,0,0,0,0,0,0,0,0,0,0,0,0,0,0,0,0,0,0,0,0,0,0,0,0,0,0,0,0,0,0,0,0,0,0,0,0,0,0,0,0,0,0,0,0,0,0,0,0,0,0,0,0,0,0,0,0,0,0,0,0,0,0
0,0,0,0,0,0,0,0,1404,1411,1410,1406,1401,1408,1423,1434,1460,1463,1487,1485,1486,1497,1508,1521,1532,1529,1540,1549,1564,1574,1584,1590,1601,1604,1616,1619,1630,1639,1648,1655,1665,1680,1688,1687,0,0,0,0,0,0,0,1400,1402,1405,1423,0,1682,1704,1727,1729,1731,1732,1737,1738,1738,1739,1743,1745,1746,1746,1752,1755,0,0,0,0,0,0,0,1439,1449,1455,1462,1461,1458,1459,1462,0,0,2264,2272,2280,2287,2287,2288,2287,2294,2298,2300,2304,2310,2316,2320,2324,2330,2334,2335,2336,2339,2343,2345,0,2347,2348,2350,2352,2356,2357,2357,2357,2356,2358,2365,2382,2368,0,1471,1472,1472,1474,1474,1476,1476,0,2359,2359,2363,2379,0,0,2355,2275,2269,2278,2359,0,0,0,0,0,0,0,0,0,0,0,0,0,0,2345,2343,0,0,0,2337,2330,2329,0,0,0,0,0,0,0,0,0,0,0,0,0,0,0,0,0,0,0,0,0,0,0,2300,0,2295,2292,2291,2284,2286,2279,2277,2265,2258,2256,2259,2260,2259,2255,2253,2251,2253,2249,2253,2252,2251,2247,2245,2245,2247,2248,2250,2252,2258,2251,2250,2253,2259,2263,2262,2261,2263,2271,2277,2280,2281,2278,2272,2271,2281,2289,0,0,0,0,0,0,0,0,0,0,0,0,0,0,0,0,0,0,0,0,0,0,0,0,0,0,0,0,0,0,0,0,0,0,0,0,0,0,0,0,0,0,0,0,0,0,0,0,0,0,0,0,0,0,0,0,0,0,0,0,0,0,1558,0,0,0,0,0,1556,0,1567,1564,1561,1561,1562,1563,1565,1566,1568,1567,1567,1567,1567,1568,1568,1568,1569,1569,1567,1558,1563,1565,1566,1566,1566,1567,1564,1566,0,0,0,0,0,0,2472,2476,2481,2485,2489,2496,2503,2509,2511,2512,2519,2521,2523,2520,2524,2528,2532,2534,2529,2519,2505,2499,2494,2484,2478,2475,2475,2474,2474,2473,2472,2468,2467,2464,2467,2466,2465,2467,2471,2476,2470,2474,2474,2480,2481,2494,2504,2512,2511,2515,0,0,0,0,0,0,0,0,0,0,0,0,0,0,0,0,0,0,0,0,0,1447,1437,0,0,0,0,0,0,0,0,0,0,0,0,0,0,0,0,0,0,1383,1354,0,0,0,0,0,0,0,0,0,0,0,2272,0,2277,2249,0,0,2260,2223,0,0,0,0,0,0,0,0,0,0,0,0,0,0,0,0,0,0,0,0,0,0,0,0,0,0,0,0,0,0,0,0,0,0,0,0,0,0,0,0,0,0,0,0,0,0,0,0,0,0,0,0,0,0,0,0,0,0
0,0,0,0,0,0,0,0,1379,1403,1405,1409,1409,1411,1429,1443,1447,1478,1473,1483,1495,1495,1504,1513,1524,1526,1538,1547,1562,1572,1581,1586,1595,1605,1615,1620,1629,1641,1653,1661,1668,1684,1690,1695,1707,0,0,0,0,0,0,1405,1407,1408,1426,0,1679,1708,1733,1734,1735,1734,1736,1737,1739,1742,1744,1746,1746,1746,1751,1753,0,0,0,0,0,0,0,1442,1454,1458,1462,1461,1454,1453,1454,0,0,2264,2273,2279,2285,2286,2289,2290,2295,2300,2301,2303,2308,2315,2319,2324,2330,2334,2335,2336,2338,2343,2345,0,2347,2349,2351,2354,2358,2361,2361,2359,2356,2356,2362,2373,2371,0,0,1471,1470,1470,1474,1473,0,0,2354,2357,2362,2376,2385,2392,2343,2277,2274,2283,2359,2414,2412,2413,2415,2413,2406,2402,2396,2386,2377,2370,2365,2357,2350,2348,2348,2347,2348,2346,2342,2337,2335,2335,2336,2337,2337,2336,2336,2338,2338,2340,2339,2341,2340,2344,2343,2343,2337,2334,2330,2328,2323,2316,2312,2313,2312,2306,2304,2299,2299,2295,2294,2290,2287,2280,2274,2271,2270,2268,2267,2266,2266,2266,2267,2265,2261,2258,2259,2259,2260,2259,2261,2259,2264,2265,2269,2266,2268,2270,2274,2278,2277,2276,2276,2281,2285,2289,2290,2288,2288,2288,2292,2299,2303,2305,2307,2313,2316,2316,2313,2312,2317,2320,2323,2323,2325,2328,2329,2329,2328,2330,2329,2335,2337,2342,2346,2346,2343,2339,2341,2340,2342,2340,2345,2353,2358,2357,2359,2361,2358,2363,2366,2364,2362,2361,2361,2366,2369,2368,2370,2370,2372,2369,2372,2373,2371,2372,2368,2368,2364,2366,2363,2369,2369,0,2362,0,0,0,0,2368,2369,0,0,0,1559,1557,1561,1565,1567,1567,1569,1568,1569,1567,1569,1569,1569,1568,1570,1570,1561,0,1544,1560,1563,1562,1561,1561,1560,1556,0,2452,2454,2464,2463,2466,2468,2474,2479,2482,2489,2497,2504,2508,2514,2516,2519,2521,2521,2520,2521,2523,2519,2514,2508,2500,2490,2485,2481,2477,2474,2469,2470,2467,2468,2467,2466,2462,2460,2456,2459,2460,2460,2461,2462,2465,2460,2465,2467,2474,2474,2484,2492,2503,2507,2519,0,0,0,0,0,1426,1413,0,0,0,0,0,0,0,0,0,0,1351,1350,1413,1433,1431,0,0,0,1427,1417,0,0,0,0,0,0,0,0,0,0,0,0,0,1452,1381,1424,0,0,0,0,0,0,0,0,0,0,0,0,0,0,0,0,0,2267,2268,0,0,0,0,0,0,0,0,0,0,0,0,0,0,0,0,0,0,0,0,0,2165,2159,2159,2157,2157,2148,0,0,0,0,0,0,0,0,0,0,0,0,0,0,0,0,0,0,0,0,0,0,0,0,0,0,0,0,0,0,0
0,0,0,0,0,0,0,0,1341,1395,1399,1408,1413,1417,1427,1439,1459,1466,1474,1483,1503,1507,1509,1514,1521,1524,1533,1546,1563,1573,1579,1577,1592,1603,1616,1623,1632,1642,1652,1662,1677,1690,1707,1713,1707,0,0,0,0,0,1421,1400,1401,1403,1423,0,1676,1708,1735,1731,1734,1733,1735,1736,1739,1743,1747,1747,1747,1747,1749,1750,0,0,0,1996,0,0,0,1444,1451,1452,1456,1456,1452,1451,1453,0,0,2264,2273,2278,2284,2284,2289,2291,2296,2300,2304,2307,2312,2316,2320,2326,2330,2333,2333,2335,2338,2343,0,0,2347,2348,2350,2352,2357,2360,2361,2359,2357,2357,2361,2363,2361,0,0,1467,0,0,0,1473,0,0,2351,2354,2361,2379,2388,2395,2345,2281,2278,2287,2373,2418,2418,2419,2421,2419,2412,2405,2396,2387,2378,2375,2371,2364,2357,2353,2351,2350,2349,2348,2344,2340,2336,2335,2337,2340,2339,2337,2336,2338,2338,2340,2341,2344,2342,2344,2342,2341,2337,2332,2329,2326,2321,2316,2313,2313,2310,2306,2305,2303,2306,2301,2297,2289,2287,2281,2276,2273,2272,2271,2269,2270,2270,2270,2269,2267,2263,2260,2260,2264,2267,2266,2265,2264,2268,2268,2272,2273,2276,2277,2281,2283,2282,2280,2280,2283,2286,2291,2292,2293,2294,2295,2297,2302,2306,2309,2310,2316,2320,2319,2318,2316,2321,2322,2327,2327,2332,2330,2330,2331,2331,2336,2336,2341,2340,2343,2346,2347,2347,2344,2344,2344,2345,2346,2350,2356,2358,2359,2358,2363,2362,2366,2365,2368,2366,2365,2364,2366,2369,2370,2370,2368,2369,2369,2372,2375,2374,2376,2371,2372,2369,2373,2370,2373,2372,2373,2372,2371,2370,2375,2379,2381,2377,2376,2377,0,0,1556,1564,1567,1567,1567,1567,1567,1568,1567,1570,1570,1570,1569,1569,1570,1546,0,0,1563,1561,1560,1555,1558,1556,0,0,2451,2457,2465,2468,2468,2470,2474,2480,2485,2492,2498,2505,2509,2516,2515,2518,2516,2517,2516,2516,2510,2497,2487,2482,2481,2476,2473,2473,2472,2471,2466,2466,2463,2465,2462,2462,2456,2454,2451,2454,2454,2455,2455,2456,2459,2458,2461,2464,2469,2472,2476,2484,2494,2504,2518,2543,0,0,0,0,0,1392,1427,0,0,1373,1422,1473,1494,1401,0,1444,1436,1430,1421,1417,0,0,0,0,1420,0,0,0,0,0,0,0,0,0,0,0,0,0,0,0,1347,1371,0,0,0,0,0,0,0,0,0,0,0,0,0,0,0,0,0,0,0,0,0,0,2241,0,0,0,0,0,0,0,0,0,0,0,0,0,0,0,0,2186,2184,2183,2180,2176,2174,2168,2147,0,0,0,0,0,0,0,0,0,0,0,0,0,0,0,0,0,0,0,0,0,0,0,0,0,0,0,0,0,0
0,0,0,0,0,0,0,0,0,1400,1406,1420,1425,1424,1425,1432,1446,1455,1468,1483,1500,1514,1514,1519,1520,1522,1530,1548,1562,1571,1575,1580,1596,1614,1621,1624,1629,1637,1645,1659,1676,1691,1705,1715,1707,0,0,0,0,0,1391,1393,1397,1400,1420,0,1683,1717,1741,1737,1738,1739,1739,1740,1740,1744,1748,1749,1749,1749,1750,1750,0,0,0,0,0,0,0,1445,1451,1452,1454,1454,1453,1453,1454,0,0,2267,2274,2279,2280,2280,2286,2292,2297,2301,2305,2310,2313,2320,2321,2323,2325,2328,2331,2335,2339,2343,0,0,0,2350,0,2353,2356,2358,2361,2360,2360,2360,2362,2363,2361,0,0,1460,0,0,0,1470,0,0,2353,2355,2363,2383,2396,2400,2342,2278,2275,2284,2373,2423,2421,2422,2421,2420,2413,2406,2397,2389,2382,2378,2373,2365,2360,2357,2354,2353,2351,2349,2343,2341,2338,2336,2338,2341,2341,2338,2336,2341,2342,2345,2342,2344,2343,2343,2340,2338,2334,2329,2325,2322,2319,2316,2314,2313,2312,2307,2305,2301,2302,2298,2294,2287,2284,2280,2279,2275,2272,2270,2269,2269,2268,2269,2269,2269,2267,2264,2264,2267,2269,2268,2267,2267,2270,2269,2272,2274,2277,2279,2281,2283,2281,2279,2280,2282,2285,2289,2291,2293,2294,2298,2300,2301,2303,2306,2310,2311,2312,2313,2315,2316,2318,2320,2323,2324,2326,2326,2329,2332,2334,2336,2337,2340,2338,2340,2342,2344,2344,2344,2345,2345,2345,2344,2346,2350,2353,2354,2354,2360,2362,2363,2360,2362,2364,2363,2358,2358,2361,2366,2367,2365,2367,2367,2371,2373,2375,2378,2374,2374,2372,2375,2375,2373,2373,2372,2373,2370,2370,2376,2380,2380,2376,2373,2375,2378,0,0,1563,1568,1568,1569,1568,1568,1568,1570,1572,1571,1569,1569,1569,1570,0,0,0,0,1561,1557,1552,1552,1555,0,0,2452,2457,2465,2465,2469,2472,2477,2480,2486,2489,2494,2500,2506,2513,2514,2517,2515,2514,2510,2504,2494,2481,2472,2468,2466,2461,2461,2463,2463,2463,2457,2461,2461,2464,2460,2456,2451,2450,2450,2449,2446,2447,2450,2452,2454,2456,2461,2464,2468,2470,2470,2474,2489,2498,2512,0,0,0,0,0,0,0,0,0,0,1383,0,0,0,0,0,0,0,1490,1471,1447,0,0,1450,0,0,0,0,0,0,0,0,0,0,0,0,0,0,0,0,0,0,1406,1381,0,0,0,0,2442,0,0,0,0,0,0,0,0,0,0,0,0,0,0,0,0,0,0,0,0,0,0,0,0,0,0,0,0,0,0,0,0,2206,2204,2201,2196,2193,2187,2182,2175,2153,0,0,0,0,0,0,0,0,0,0,0,0,0,0,0,0,0,0,0,0,0,0,0,0,0,0,0,0,0,0
0,0,0,0,0,0,0,0,0,1407,1408,1419,1422,1434,1425,1430,1443,1457,1469,1470,1497,1511,1525,1535,1534,1528,1533,1548,1561,1565,1572,1582,1598,1612,1616,1625,1638,1644,1641,1648,1664,1682,1694,1701,1709,0,0,0,0,0,1391,1391,1392,1400,1419,0,1686,1719,1740,1736,1738,1740,1741,1740,1741,1742,1746,1746,1748,1747,1751,1750,1756,0,2086,0,0,0,0,1438,1447,1449,1452,1453,1455,1459,1455,0,0,2265,2272,2279,2279,2280,2284,2290,2297,2300,2304,2309,2315,2322,2324,2325,2327,2330,2332,2337,2340,2344,2345,0,2350,2350,2352,2352,2355,2355,2358,2359,2360,2359,2363,2366,2365,0,0,1459,0,0,0,1466,0,0,2353,2356,2367,2387,2399,2403,2340,2279,2276,2285,2373,2426,2426,2426,2424,2420,2411,2402,2394,2387,2380,2377,2373,2368,2364,2360,2358,2358,2354,2352,2345,2342,2339,2337,2336,2339,2339,2341,2339,2343,2344,2347,2344,2344,2342,2340,2337,2335,2335,2330,2326,2323,2321,2319,2315,2312,2310,2305,2305,2300,2300,2292,2287,2283,2281,2280,2281,2279,2276,2272,2269,2267,2266,2266,2266,2266,2267,2265,2265,2265,2266,2267,2268,2269,2270,2270,2271,2273,2275,2276,2278,2279,2278,2277,2280,2284,2286,2290,2293,2295,2296,2300,2301,2299,2299,2303,2309,2311,2311,2313,2314,2317,2317,2318,2320,2322,2324,2322,2325,2328,2332,2334,2336,2335,2334,2337,2342,2345,2342,2343,2344,2348,2348,2347,2347,2348,2348,2348,2352,2358,2361,2361,2358,2358,2359,2359,2355,2355,2357,2365,2367,2368,2365,2367,2369,2372,2369,2370,2370,2371,2371,2372,2375,2374,2374,2374,2375,2373,2375,2378,2382,2381,2379,2374,2375,2371,2369,0,1539,1568,1570,1571,1570,1569,1569,1572,1574,1573,1570,1571,1571,0,0,2380,2383,0,1563,1562,0,1561,1554,0,0,2450,2456,2457,2462,2468,2475,2477,2478,2484,2486,2492,2499,2505,2506,2506,2507,2503,2499,2493,2486,2477,2469,2465,2461,2458,2455,2454,2458,2455,2456,2451,2455,2455,2457,2455,2451,2446,2444,2444,2443,2441,2444,2448,2449,2451,2454,2457,2457,2460,2460,2461,2467,2484,2497,0,0,0,0,0,0,0,0,0,0,0,0,0,0,0,0,1490,0,0,1496,0,1477,0,0,1408,0,0,0,0,0,0,0,0,0,0,0,0,0,0,0,1431,0,1344,0,1399,1376,0,0,2433,2457,0,0,0,1300,1339,0,0,0,0,0,0,0,0,0,0,0,0,0,0,0,0,0,0,0,0,0,0,0,0,0,0,0,2202,2204,2201,2200,2197,2192,2184,2172,2144,0,0,0,0,0,0,0,0,0,0,0,0,0,0,0,0,0,0,0,0,0,0,0,0,0,0,0,0,0,0
0,0,0,0,0,0,0,0,0,1408,1408,1411,1417,1428,1436,1431,1457,1457,1454,1472,1485,1509,1531,1538,1533,1533,1544,1553,1558,1560,1573,1587,1597,1607,1610,1625,1632,1640,1639,1646,1658,1675,1686,1696,1707,1756,0,0,0,0,0,1390,1392,1401,1422,0,1674,1712,1742,1740,1742,1741,1742,1741,1743,1744,1745,1745,1747,1748,1752,1754,1762,0,2100,1979,0,0,0,1445,1449,1452,1453,1454,1454,1456,1454,0,0,2264,2271,2278,2279,2281,2284,2291,2297,2301,2304,2309,2314,2320,2324,2325,2326,2330,2335,2341,2343,2343,2345,2347,2350,2351,2353,2354,2356,2357,2359,2359,2360,2358,2359,2362,2367,2376,0,0,0,1460,1465,1465,0,2349,2352,2357,2368,2382,2395,2401,2340,2279,2275,2283,2371,2430,2429,2426,2420,2416,2411,2402,2397,2388,2381,2373,2373,2370,2368,2362,2360,2359,2356,2351,2344,2343,2340,2341,2338,2341,2341,2344,2343,2346,2348,2350,2346,2343,2342,2342,2341,2337,2335,2331,2328,2326,2324,2320,2316,2311,2310,2304,2300,2295,2294,2289,2283,2280,2279,2280,2281,2277,2274,2269,2268,2267,2266,2267,2268,2269,2268,2265,2265,2266,2265,2266,2266,2268,2269,2270,2272,2273,2274,2275,2277,2276,2276,2276,2279,2284,2286,2291,2292,2295,2296,2298,2299,2297,2296,2300,2306,2308,2307,2310,2310,2315,2315,2319,2317,2319,2319,2320,2321,2324,2329,2331,2332,2331,2332,2336,2339,2340,2339,2342,2345,2347,2344,2342,2343,2343,2346,2346,2352,2354,2358,2357,2356,2355,2356,2357,2354,2354,2355,2361,2364,2368,2366,2367,2368,2371,2367,2367,2370,2372,2370,2370,2375,2375,2371,2371,2374,2375,2376,2376,2378,2377,2376,2373,2372,2370,2369,2366,2355,0,0,0,0,0,0,1577,1580,1577,1571,0,0,0,2392,2392,0,0,1565,1565,1561,1557,1553,0,2449,2447,2454,2454,2459,2462,2471,2473,2475,2478,2481,2487,2492,2498,2499,2499,2494,2488,2479,2473,2466,2463,2458,2458,2457,2455,2453,2451,2452,2448,2447,2445,2446,2447,2450,2451,2447,2441,2440,2441,2441,2440,2443,2447,2448,2450,2450,2452,2453,2457,2455,2457,2462,2474,2487,0,0,0,0,0,0,0,0,0,0,0,0,0,0,0,0,0,0,0,0,1481,0,1469,1456,1418,0,1425,1451,0,0,0,0,0,0,0,0,0,0,0,0,1382,1362,0,0,1363,1381,1352,2460,2458,2469,0,0,0,0,0,0,0,0,0,0,0,0,0,0,0,0,0,0,0,0,0,0,0,0,0,0,0,0,0,0,0,0,2196,2197,2199,2198,2200,2195,2187,2172,2124,0,0,0,0,0,0,0,0,0,0,0,0,0,0,0,0,0,0,0,0,0,0,0,0,0,0,0,0,0,0
0,0,0,0,0,0,0,0,0,1402,1400,1401,1404,1431,1444,1453,1450,1444,1451,1461,1483,1500,1524,1531,1528,1525,1549,1552,1555,1560,1577,1587,1597,1604,1617,1625,1640,1644,1642,1649,1664,1682,1691,1698,1726,1761,0,0,0,0,1365,1387,1389,1399,1424,0,1679,1700,1734,1734,1737,1737,1740,1741,1746,1747,1747,1746,1747,1748,1752,1755,0,0,2095,2029,0,0,0,1448,1446,1449,1450,1451,1451,1453,1453,0,0,2262,2270,2277,2281,2285,2288,2293,2297,2301,2305,2309,2313,2318,2326,2331,2333,2335,2339,2344,2345,2343,2345,2348,2351,2352,2354,2355,2356,2357,2359,2359,2359,2357,2358,2359,2362,2362,2359,0,0,0,0,0,2360,2351,2351,2352,2361,2374,2387,2393,2343,2283,2277,2283,2370,2431,2431,2427,2421,2415,2408,2402,2398,2390,2383,2373,2373,2370,2368,2365,2361,2360,2354,2350,2344,2343,2340,2341,2339,2341,2340,2343,2345,2346,2345,2345,2343,2343,2343,2343,2342,2337,2335,2333,2330,2327,2324,2320,2314,2308,2307,2302,2299,2294,2294,2291,2282,2279,2278,2281,2280,2278,2274,2268,2268,2268,2269,2268,2269,2268,2267,2265,2262,2262,2262,2265,2265,2267,2267,2269,2272,2274,2275,2276,2277,2276,2277,2275,2278,2281,2284,2289,2292,2293,2294,2294,2298,2298,2300,2300,2303,2307,2309,2309,2308,2311,2312,2314,2314,2316,2317,2319,2319,2321,2325,2326,2327,2326,2331,2334,2338,2336,2337,2338,2342,2344,2343,2344,2347,2349,2348,2347,2349,2350,2350,2353,2355,2355,2355,2356,2357,2359,2358,2359,2362,2367,2366,2368,2367,2372,2367,2368,2370,2372,2369,2370,2372,2372,2369,2370,2373,2374,2376,2376,2376,2376,2376,2374,2372,2372,2371,2369,2368,2369,2367,2368,0,0,0,0,0,2374,2378,2383,2385,2391,2393,2393,2396,0,0,0,0,0,0,0,2433,2437,2445,2447,2454,2457,2465,2467,2469,2473,2481,2486,2486,2487,2486,2485,2478,2474,2467,2461,2456,2454,2452,2452,2453,2451,2449,2446,2447,2446,2446,2445,2444,2444,2446,2447,2443,2436,2435,2436,2440,2441,2443,2444,2446,2448,2447,2446,2449,2453,2450,2450,2455,2461,0,0,0,0,0,0,0,0,0,0,0,0,0,0,0,0,0,0,0,0,0,0,0,0,1482,1437,0,1451,1475,0,0,0,0,0,0,0,0,0,0,0,0,1407,0,0,0,1359,0,1340,2461,2468,2465,0,0,0,0,0,0,0,0,0,0,0,0,0,0,0,0,0,0,0,0,0,0,0,0,0,0,0,0,0,0,0,0,0,2192,2197,2201,2202,2199,2188,2176,2134,0,0,0,1993,1987,0,0,0,0,0,0,0,0,0,0,0,0,0,0,0,0,0,0,0,0,0,0,0,0,0
0,0,0,0,0,0,0,0,1402,1404,1405,1399,1404,1421,1443,1454,1444,1447,1462,1473,1492,1506,1519,1516,1517,1531,1547,1547,1549,1566,1587,1596,1604,1614,1623,1631,1636,1643,1644,1651,1664,1681,1689,1698,0,0,0,0,0,0,1380,1389,1393,1401,1428,0,1687,1707,1740,1737,1738,1736,1740,1743,1746,1747,1748,1748,1750,1751,1752,1754,0,0,2099,2034,0,0,0,1442,1443,1446,1448,1448,1447,1446,1450,0,0,2264,2269,2275,2282,2286,2290,2294,2299,2303,2307,2310,2313,2317,2325,2329,2331,2333,2337,2342,2344,2344,2346,2348,2350,2353,2355,2357,2358,2360,2361,2361,2360,2359,2358,2358,2360,2361,2361,2362,2363,2365,2365,2361,2357,2354,2349,2346,2351,2366,2384,2389,2340,2284,2276,2279,2354,2424,2425,2424,2419,2414,2407,2403,2400,2395,2387,2377,2374,2372,2369,2366,2360,2358,2350,2345,2342,2340,2339,2339,2340,2342,2343,2345,2346,2347,2346,2345,2343,2344,2344,2343,2340,2337,2334,2332,2329,2326,2324,2320,2313,2305,2303,2298,2295,2293,2294,2292,2285,2281,2279,2279,2276,2273,2269,2267,2269,2269,2267,2264,2266,2266,2267,2264,2263,2263,2262,2263,2263,2266,2267,2268,2268,2271,2274,2276,2278,2278,2280,2278,2278,2279,2281,2286,2290,2292,2294,2293,2296,2296,2299,2301,2302,2306,2305,2307,2307,2311,2308,2310,2308,2313,2313,2317,2317,2319,2320,2321,2324,2326,2332,2334,2336,2334,2335,2336,2338,2338,2337,2341,2347,2348,2346,2346,2348,2349,2347,2349,2350,2352,2351,2353,2354,2357,2356,2355,2357,2362,2364,2364,2363,2367,2368,2371,2371,2371,2369,2370,2370,2368,2367,2368,2370,2371,2374,2376,2374,2374,2372,2371,2370,2373,2373,2371,2372,2377,2379,2379,2381,2382,2384,2384,2387,2385,2387,2387,2388,2389,2390,2390,2394,2395,2395,0,0,0,2408,2420,2424,2429,2434,2442,2450,2455,2461,2464,2465,2467,2473,2477,2474,2474,2473,2471,2465,2461,2457,2452,2449,2446,2446,2447,2449,2447,2442,2441,2442,2444,2440,2443,2443,2443,2444,2442,2441,2434,2437,2440,2445,2442,2439,2438,2442,2445,2443,2441,2444,2449,2448,2447,2450,2455,0,0,0,0,0,0,0,0,0,0,0,0,0,0,0,0,0,0,0,0,0,0,0,0,0,0,0,1451,0,0,0,0,0,0,0,0,0,0,0,0,0,0,0,1353,1392,0,0,0,2458,2458,2464,0,0,2463,2478,0,0,0,0,0,2349,0,0,0,0,2293,0,0,0,0,0,0,0,0,0,0,0,0,0,0,0,0,2184,2196,2202,2202,2204,2202,2198,2186,2177,2147,0,0,1993,1993,1990,0,0,0,0,0,0,0,0,0,0,0,0,0,0,0,0,0,0,0,0,0,0,0,0,0
0,0,0,0,0,0,0,0,1364,1400,1405,1406,1410,1429,1436,1443,1455,1468,1478,1478,1484,1501,1506,1502,1514,1531,1540,1538,1548,1575,1590,1592,1595,1606,1621,1631,1639,1640,1642,1649,1659,1677,1687,1694,0,0,0,0,0,0,1406,1390,1393,1400,1424,0,1687,1716,1747,1740,1736,1734,1738,1742,1745,1745,1749,1748,1750,1749,1751,1752,0,0,2067,0,0,0,0,1442,1443,1443,1444,1444,1448,1449,1453,0,0,2269,2273,2276,2283,2286,2290,2294,2299,2303,2308,2311,2315,2319,2326,2329,2332,2333,2337,2340,2343,2345,2347,2349,2351,2355,2357,2359,2360,2361,2362,2361,2361,2361,2361,2361,2360,2360,2362,2362,2365,2364,2363,2360,2359,2357,2352,2345,2346,2365,2380,2382,2330,2287,2277,2279,2326,2395,2411,2418,2422,2418,2409,2407,2401,2396,2388,2381,2377,2371,2365,2365,2361,2360,2351,2346,2343,2339,2340,2339,2341,2343,2345,2345,2346,2347,2346,2343,2343,2346,2347,2343,2338,2335,2335,2333,2329,2327,2324,2320,2312,2305,2303,2301,2298,2294,2292,2291,2287,2283,2280,2279,2279,2276,2272,2270,2270,2269,2266,2262,2263,2263,2265,2262,2262,2262,2263,2263,2263,2264,2265,2265,2266,2269,2272,2273,2275,2278,2281,2279,2280,2279,2282,2286,2288,2289,2290,2292,2296,2297,2300,2302,2303,2305,2304,2305,2305,2307,2306,2306,2307,2311,2312,2316,2317,2318,2319,2321,2324,2326,2330,2333,2335,2334,2332,2332,2332,2337,2339,2344,2346,2347,2342,2343,2344,2347,2343,2343,2344,2345,2347,2350,2354,2355,2354,2351,2354,2357,2361,2362,2364,2366,2365,2367,2368,2369,2368,2368,2368,2368,2369,2368,2367,2366,2369,2374,2374,2374,2373,2372,2370,2371,2374,2373,2374,2376,2379,2381,2381,2379,2381,2384,2389,2388,2388,2388,2388,2388,2387,2389,2395,2398,2396,2395,2398,2403,2408,2414,2420,2422,2423,2428,2441,2451,2458,2458,2459,2460,2466,2466,2460,2455,2452,2451,2449,2449,2449,2446,2442,2440,2441,2444,2445,2444,2440,2438,2437,2438,2437,2438,2440,2439,2440,2437,2436,2432,2433,2438,2439,2437,2432,2431,2435,2440,2439,2436,2438,2442,2446,2445,2449,2452,2457,0,0,0,0,0,0,1454,0,0,0,0,0,0,0,0,0,0,0,0,0,0,0,0,0,0,0,1436,0,0,1536,0,0,0,0,0,0,0,0,0,0,1470,1454,1473,1412,1406,0,0,2446,2450,2461,0,0,2463,0,0,0,0,0,0,0,2356,0,0,0,0,0,0,0,0,0,0,0,0,0,0,0,0,0,0,0,0,0,2212,2207,2208,2209,2201,2197,2185,2180,2149,0,0,0,1990,1987,1975,0,0,0,0,0,0,0,0,0,0,0,0,0,0,0,0,0,0,0,0,0,0,0,0
0,0,0,0,0,0,0,0,0,1386,1398,1398,1414,1429,1430,1444,1457,1484,1482,1482,1480,1482,1495,1507,1515,1533,1543,1549,1561,1578,1588,1592,1599,1606,1618,1631,1642,1646,1646,1659,1655,1665,1682,1692,0,0,0,0,0,0,0,1394,1395,1401,1419,0,1684,1725,1753,1745,1738,1735,1737,1741,1741,1744,1747,1748,1751,1750,1753,1753,1758,0,0,1951,0,0,0,0,1441,1441,1443,1445,1449,1453,1457,0,0,2273,2276,2278,2282,2285,2290,2294,2299,2302,2308,2311,2317,2320,2325,2327,2330,2333,2337,2339,2342,2344,2346,2348,2350,2354,2356,2359,2359,2361,2361,2362,2361,2362,2362,2363,2362,2362,2364,2366,2369,2367,2365,2359,2355,2353,2348,2345,2349,2367,2380,2383,2338,2290,2278,2280,0,0,2403,2424,2425,2419,2408,2406,2400,2395,2383,2378,2376,2370,2364,2363,2362,2362,2354,2349,2346,2342,2342,2340,2341,2344,2347,2348,2347,2346,2346,2344,2345,2346,2345,2340,2336,2336,2336,2335,2332,2330,2325,2320,2313,2308,2304,2302,2299,2296,2292,2289,2287,2285,2282,2279,2276,2274,2272,2269,2268,2267,2264,2261,2261,2261,2262,2262,2264,2264,2265,2264,2263,2264,2266,2267,2267,2269,2271,2270,2271,2274,2278,2280,2282,2283,2285,2288,2288,2288,2289,2294,2295,2295,2295,2300,2302,2304,2302,2304,2305,2306,2305,2306,2306,2308,2311,2318,2318,2317,2315,2319,2323,2327,2329,2330,2331,2332,2331,2329,2330,2335,2337,2340,2341,2340,2335,2337,2341,2346,2342,2341,2341,2341,2344,2346,2352,2350,2351,2349,2352,2351,2354,2356,2361,2360,2359,2358,2361,2365,2368,2368,2369,2368,2370,2369,2367,2365,2367,2373,2375,2374,2374,2372,2372,2371,2375,2373,2374,2375,2378,2379,2379,2380,2383,2384,2386,2387,2387,2389,2388,2389,2389,2392,2397,2398,2397,2401,2404,2405,2403,2406,2413,2419,2420,2422,2430,2441,2446,2448,2449,2450,2449,2449,2448,2445,2442,2442,2439,2440,2438,2437,2433,2435,2437,2441,2440,2439,2436,2435,2433,2432,2431,2432,2436,2437,2436,2433,2431,2429,2430,2433,2433,2430,2427,2426,2430,2435,2434,2433,2435,2439,2444,2443,2447,2448,2452,0,0,0,0,0,0,0,0,0,0,0,0,0,0,0,0,0,0,0,0,1460,0,0,0,0,0,0,0,1485,1506,1464,0,0,0,0,0,0,0,0,0,1453,1427,1414,1418,0,0,0,2444,2448,2471,0,0,0,0,0,0,2396,0,0,0,0,0,0,0,0,0,0,0,0,0,0,0,0,0,0,0,0,0,0,0,0,0,2194,2208,2211,2209,2203,2195,2184,2173,2141,0,0,2001,1998,1994,1980,0,0,0,0,0,0,0,0,0,0,0,0,0,0,0,0,0,0,0,0,0,0,0,0
0,0,0,0,0,0,0,0,1409,1400,1391,1397,1414,1432,1439,1441,1459,1464,1485,1473,1471,1481,1496,1507,1521,1538,1548,1553,1561,1572,1579,1587,1597,1600,1609,1626,1644,1651,1654,1656,1661,1668,1682,1693,0,0,0,0,0,0,1419,1393,1391,1396,1416,0,1691,1725,1755,1748,1735,1733,1735,1742,1744,1746,1747,1746,1748,1748,1753,1756,1765,0,0,1987,0,0,0,1448,1444,1443,1442,1445,1448,1454,1458,0,0,2276,2281,2281,2283,2286,2291,2297,2300,2301,2307,2312,2318,2320,2325,2327,2329,2332,2336,2339,2341,2343,2345,2348,2350,2352,2354,2355,2357,2359,2361,2362,2362,2363,2364,2363,2363,2362,2365,2365,2367,2365,2367,2359,2356,2352,2352,2354,2361,2373,2377,2380,2339,2288,2277,2281,0,0,2443,2435,2424,2415,2408,2407,2402,2393,2381,2375,2374,2368,2364,2363,2364,2365,2360,2353,2348,2345,2345,2343,2341,2343,2347,2348,2347,2346,2347,2346,2347,2347,2345,2341,2340,2339,2339,2337,2334,2330,2325,2321,2313,2311,2306,2305,2299,2297,2295,2293,2290,2285,2281,2279,2277,2275,2273,2270,2267,2265,2266,2265,2264,2262,2260,2260,2261,2262,2263,2264,2263,2262,2262,2264,2266,2269,2271,2270,2269,2271,2274,2276,2280,2283,2285,2287,2286,2286,2288,2292,2294,2296,2296,2297,2298,2299,2301,2304,2304,2304,2306,2308,2308,2307,2309,2315,2318,2318,2317,2320,2323,2324,2325,2327,2329,2330,2327,2325,2327,2333,2335,2336,2335,2339,2336,2337,2338,2342,2340,2339,2341,2343,2345,2344,2347,2346,2349,2348,2351,2349,2352,2356,2361,2360,2358,2358,2360,2363,2366,2366,2367,2368,2371,2370,2366,2366,2367,2371,2372,2372,2371,2372,2374,2376,2377,2372,2370,2368,2371,2373,2376,2378,2381,2382,2381,2383,2386,2394,2394,2394,2390,2394,2397,2401,2398,2401,2402,2404,2401,2403,2409,2414,2417,2418,2423,2430,2434,2436,2439,2440,2441,2442,2442,2439,2435,2433,2433,2436,2436,2435,2429,2433,2434,2435,2432,2431,2433,2433,2434,2432,2431,2428,2429,2429,2430,2428,2426,2424,2422,2424,2424,2426,2424,2427,2428,2432,2432,2431,2433,2435,2441,2441,2448,2447,2448,2440,0,0,0,0,0,0,0,0,0,0,1453,0,0,0,0,0,0,0,1459,1441,1435,0,0,0,0,0,0,0,1454,0,0,0,0,0,0,0,0,0,0,0,0,1369,0,0,0,0,2453,2455,2461,0,0,0,0,0,0,0,0,0,0,0,0,0,0,0,0,0,0,0,0,0,0,0,0,0,0,0,0,0,0,0,0,2188,2197,2204,2203,2202,2197,2188,2176,2147,0,0,2007,1997,1990,1973,0,0,0,0,0,0,0,0,0,0,0,0,0,0,0,0,0,0,0,0,0,0,0,0
0,0,0,0,0,0,0,0,0,1401,1395,1394,1412,1427,1437,1439,1444,1465,1472,1474,1475,1497,1502,1511,1521,1541,1548,1553,1556,1566,1575,1589,1601,1602,1611,1624,1643,1652,1648,1652,1667,1678,1688,1705,0,0,0,0,0,0,0,1395,1392,1400,1424,0,1694,1720,1749,1746,1737,1736,1736,1741,1741,1744,1745,1746,1747,1748,1753,1756,1767,0,0,0,0,0,0,1445,1444,1443,1444,1445,1446,1450,1453,0,0,2275,2280,2283,2283,2285,2290,2296,2300,2302,2307,2312,2318,2321,2326,2328,2331,2333,2337,2338,2341,2344,2347,2348,2350,2352,2354,2354,2356,2358,2360,2362,2362,2362,2363,2364,2365,2363,2365,2363,2365,2364,2367,2359,2355,2351,2349,2354,2365,2379,2384,2383,2341,2289,2278,2284,0,0,0,0,2407,2403,2404,2408,2406,2396,2384,2372,2370,2367,2366,2366,2366,2364,2360,2354,2349,2347,2345,2344,2343,2343,2346,2347,2348,2347,2347,2348,2349,2348,2343,2341,2340,2340,2337,2335,2331,2329,2323,2321,2315,2312,2306,2304,2300,2298,2295,2291,2288,2286,2283,2280,2277,2274,2272,2267,2265,2263,2265,2266,2264,2264,2261,2262,2259,2261,2261,2263,2262,2261,2262,2264,2265,2269,2271,2272,2269,2268,2272,2274,2281,2282,2285,2284,2285,2285,2288,2291,2294,2294,2295,2295,2295,2296,2298,2303,2304,2305,2303,2305,2306,2308,2310,2314,2316,2315,2314,2317,2321,2322,2324,2325,2326,2327,2325,2324,2327,2329,2330,2329,2331,2335,2334,2335,2335,2336,2334,2334,2335,2340,2342,2342,2343,2345,2347,2347,2349,2348,2351,2354,2357,2357,2354,2355,2356,2359,2363,2364,2364,2364,2367,2367,2364,2363,2366,2370,2369,2369,2366,2368,2371,2376,2375,2372,2370,2369,2370,2372,2375,2379,2382,2381,2380,2384,2389,2395,2395,2394,2391,2395,2396,2400,2400,2403,2401,2400,2400,2404,2408,2410,2414,2418,2425,2429,2432,2433,2431,2430,2432,2436,2437,2436,2434,2431,2429,2430,2430,2430,2427,2430,2429,2430,2426,2425,2426,2429,2431,2432,2429,2427,2424,2425,2423,2423,2421,2421,2420,2422,2422,2424,2423,2425,2423,2426,2427,2430,2433,2433,2437,2437,2444,2445,2449,2446,2433,0,0,0,0,0,0,0,0,1465,1450,1430,0,0,0,0,0,1429,0,1415,0,0,0,0,0,0,0,0,0,0,0,0,0,0,0,0,0,0,0,0,0,0,0,0,0,0,2453,2459,2468,0,0,0,0,0,0,0,0,0,0,0,0,0,0,0,0,0,2308,0,0,0,0,0,0,0,0,0,0,0,0,0,0,2188,2196,2199,2199,2200,2195,2189,2175,2144,0,0,2016,1994,1987,1971,0,0,0,0,0,0,0,0,0,0,0,0,0,0,0,0,0,0,0,0,0,0,0,0
0,0,0,0,0,0,0,0,1397,1403,1404,1410,1415,1421,1429,1434,1449,1454,1469,1482,1488,1481,1506,1510,1518,1533,1534,1542,1560,1566,1581,1590,1594,1601,1612,1633,1645,1643,1638,1645,1677,1690,1703,1712,1767,0,0,0,0,0,1398,1394,1394,1400,1424,0,1688,1714,1741,1742,1736,1736,1735,1741,1742,1745,1745,1746,1746,1747,1750,1755,0,0,0,0,0,0,0,1444,1444,1443,1445,1444,1445,1446,1448,0,0,2275,2281,2284,2285,2287,2292,2296,2302,2304,2308,2312,2317,2320,2326,2328,2331,2333,2336,2338,2342,2345,2348,2350,2352,2352,2354,2354,2356,2358,2360,2360,2360,2361,2363,2364,2366,2366,2367,2363,2363,2363,2364,2360,2358,2354,2351,2357,2367,2382,2388,2387,2343,2292,2280,2288,0,0,0,0,0,2395,2418,2416,2411,2400,2387,2376,2372,2370,2369,2367,2364,2362,2358,2353,2348,2347,2347,2346,2344,2345,2347,2349,2349,2349,2348,2351,2351,2348,2343,2341,2341,2341,2337,2334,2330,2329,2326,2325,2319,2316,2310,2307,2302,2297,2293,2291,2290,2287,2284,2281,2279,2274,2273,2269,2267,2265,2267,2267,2266,2264,2263,2261,2259,2260,2261,2262,2261,2260,2260,2261,2260,2266,2270,2273,2271,2270,2274,2274,2279,2279,2283,2281,2284,2285,2288,2291,2292,2293,2293,2292,2294,2296,2298,2301,2302,2304,2303,2304,2306,2310,2311,2310,2311,2311,2315,2316,2320,2320,2322,2322,2323,2324,2322,2322,2326,2327,2328,2327,2331,2333,2335,2333,2333,2332,2332,2331,2333,2337,2339,2339,2338,2341,2342,2345,2347,2349,2353,2354,2354,2354,2352,2356,2355,2357,2358,2362,2363,2363,2364,2363,2361,2361,2366,2370,2369,2366,2363,2366,2371,2375,2375,2371,2369,2366,2368,2370,2373,2375,2377,2376,2377,2381,2387,2391,2391,2390,2389,2392,2396,2400,2401,2400,2399,2397,2401,2407,2410,2409,2409,2415,2422,2426,2429,2430,2430,2429,2431,2432,2432,2431,2429,2427,2425,2425,2425,2427,2425,2427,2425,2426,2424,2421,2423,2426,2429,2430,2429,2425,2419,2419,2418,2420,2419,2422,2421,2423,2420,2422,2421,2424,2420,2423,2426,2431,2431,2428,2433,2436,2444,2442,2447,2444,2443,2418,0,0,0,0,0,0,0,0,0,0,0,0,0,0,0,1439,0,0,0,0,0,0,0,0,0,0,0,0,0,0,0,0,0,0,0,0,0,0,0,0,1388,0,0,0,2454,2459,2471,0,0,0,0,0,0,0,0,0,0,0,2386,2374,0,0,2316,2332,2306,0,0,0,0,0,0,0,0,0,0,2221,0,0,0,2191,2192,2197,2197,2198,2195,2190,2179,2139,0,0,0,1989,1982,1969,0,0,0,0,0,0,0,0,0,0,0,0,0,0,0,0,0,0,0,0,0,0,0,0
0,0,0,0,0,0,0,0,0,1396,1406,1415,1415,1414,1422,1436,1443,1448,1459,1481,1484,1489,1504,1510,1514,1518,1530,1542,1560,1583,1592,1596,1603,1607,1620,1632,1636,1637,1638,1664,1677,1689,1703,1712,0,0,0,0,0,0,1409,1395,1396,1404,1425,0,1686,1712,1725,1728,1727,1735,1737,1744,1745,1749,1749,1750,1749,1750,1751,1752,0,0,0,0,0,0,0,1443,1445,1444,1446,1444,1445,1445,1448,0,0,2276,2280,2283,2284,2288,2294,2295,2300,2302,2309,2312,2317,2321,2326,2329,2331,2333,2336,2339,2343,2346,2349,2351,2352,2354,2356,2356,2357,2358,2361,2360,2358,2360,2363,2366,2367,2368,2369,2366,2365,2362,2360,2359,2357,2356,2351,2356,2365,2379,2389,2390,2343,2292,2281,2292,0,0,0,0,0,2436,2422,2421,2414,2403,2392,2382,2375,2371,2368,2366,2364,2361,2359,2355,2350,2348,2347,2346,2345,2346,2347,2350,2349,2350,2348,2348,2347,2345,2342,2342,2339,2337,2334,2334,2332,2329,2328,2327,2322,2318,2312,2308,2302,2295,2290,2287,2289,2285,2285,2282,2280,2274,2273,2270,2270,2267,2268,2266,2264,2263,2263,2265,2263,2264,2262,2262,2262,2262,2263,2262,2261,2264,2268,2271,2272,2271,2275,2275,2278,2276,2279,2279,2282,2283,2285,2287,2289,2290,2290,2292,2295,2298,2297,2300,2301,2305,2303,2304,2305,2310,2312,2312,2312,2312,2313,2315,2318,2319,2317,2317,2320,2323,2322,2323,2326,2329,2329,2328,2331,2332,2332,2328,2327,2327,2329,2330,2333,2334,2339,2338,2337,2339,2338,2340,2341,2345,2347,2350,2353,2355,2353,2354,2353,2356,2358,2361,2361,2361,2361,2361,2362,2361,2366,2369,2370,2365,2364,2367,2372,2372,2371,2372,2371,2370,2368,2370,2371,2374,2375,2375,2377,2382,2386,2384,2384,2384,2387,2390,2395,2396,2398,2396,2399,2398,2403,2406,2411,2408,2409,2411,2417,2422,2428,2429,2429,2427,2427,2427,2427,2428,2425,2424,2420,2420,2418,2422,2423,2423,2423,2425,2425,2422,2421,2421,2423,2424,2423,2420,2415,2417,2417,2420,2419,2421,2421,2421,2419,2419,2418,2421,2420,2423,2426,2430,2430,2427,2431,2436,2442,2441,2445,2449,2449,2438,0,0,0,0,0,0,0,0,0,0,0,0,0,0,0,0,0,0,0,0,0,0,0,0,0,0,0,0,0,0,0,0,0,0,0,0,0,0,0,0,1360,0,0,2458,2446,2455,0,0,0,2419,0,0,0,1287,0,0,2399,0,2385,2373,2362,2287,2304,2292,0,0,0,0,0,0,0,0,0,0,0,0,0,0,0,2196,2199,2201,2200,2202,2197,2191,2175,2135,0,0,2002,1997,1990,1971,0,0,0,0,0,0,0,0,0,0,0,0,0,0,0,0,0,0,0,0,0,0,0,0
0,0,0,0,0,0,0,0,0,1403,1408,1414,1409,1409,1421,1431,1435,1443,1458,1470,1481,1509,1513,1513,1519,1526,1536,1546,1563,1579,1594,1592,1597,1614,1618,1628,1628,1637,1649,1664,1671,1678,1691,1698,0,0,0,0,0,0,1398,1398,1396,1402,1422,0,1687,1707,1723,1722,1724,1730,1736,1745,1752,1752,1752,1751,1751,1752,1754,1753,0,0,0,0,0,0,0,1446,1444,1445,1445,1445,1445,1445,1448,0,0,2276,2277,2279,2282,2290,2295,2298,2302,2304,2310,2311,2316,2319,2324,2328,2332,2332,2336,2338,2342,2344,2347,2349,2352,2353,2356,2356,2357,2357,2360,2360,2359,2361,2363,2367,2367,2368,2369,2366,2364,2363,2360,2358,2355,2356,2354,2362,2367,2375,2386,2389,2346,2289,2279,2289,0,0,0,0,0,0,2401,2409,2403,2401,2391,2385,2377,2372,2368,2364,2364,2364,2364,2359,2352,2348,2348,2347,2345,2347,2348,2352,2351,2351,2350,2348,2346,2343,2343,2343,2340,2337,2337,2337,2335,2331,2334,2331,2325,2319,2313,2309,2300,2294,2290,2287,2291,2287,2288,2283,2279,2273,2271,2271,2270,2268,2268,2265,2264,2260,2261,2263,2265,2264,2262,2261,2264,2264,2265,2265,2265,2265,2264,2267,2269,2271,2274,2274,2274,2276,2277,2281,2284,2285,2287,2287,2288,2287,2288,2291,2295,2297,2298,2298,2300,2302,2303,2304,2304,2306,2309,2311,2313,2313,2315,2317,2318,2317,2316,2317,2322,2322,2321,2321,2324,2329,2331,2332,2334,2334,2332,2328,2324,2325,2331,2334,2337,2334,2338,2337,2336,2335,2336,2338,2341,2343,2345,2346,2349,2352,2356,2355,2356,2357,2357,2356,2357,2357,2358,2359,2362,2362,2365,2370,2370,2366,2364,2367,2372,2372,2372,2371,2369,2368,2368,2369,2370,2373,2375,2372,2374,2379,2384,2383,2385,2385,2389,2388,2396,2397,2400,2399,2400,2399,2403,2406,2410,2407,2410,2412,2415,2418,2422,2425,2426,2426,2425,2424,2424,2426,2423,2423,2419,2418,2415,2417,2419,2418,2422,2422,2424,2417,2417,2417,2420,2419,2418,2415,2414,2416,2419,2420,2420,2418,2417,2417,2417,2418,2419,2423,2423,2425,2426,2427,2425,2423,2427,2435,2440,2439,2441,2449,2452,2446,0,0,0,0,0,0,0,0,0,0,0,0,0,0,0,0,0,0,0,0,0,0,0,0,0,0,0,0,0,0,0,0,0,0,0,0,0,0,1395,0,0,0,0,0,2449,2451,0,0,0,0,0,0,0,0,0,0,0,0,0,2398,2332,2302,0,2286,2278,0,0,0,0,0,0,0,2246,0,0,0,0,0,0,2187,2197,2199,2199,2202,2197,2189,2174,0,0,0,2008,2002,1993,1968,0,0,0,0,0,0,0,0,0,0,0,0,0,0,0,0,0,0,0,0,0,0,0,0
0,0,0,0,0,0,0,0,0,1397,1398,1401,1405,1421,1433,1433,1436,1447,1467,1475,1497,1513,1518,1517,1518,1522,1533,1549,1557,1569,1589,1601,1594,1609,1619,1620,1622,1632,1648,1664,1668,1670,1690,1696,0,0,0,0,0,0,0,1399,1399,1407,1428,0,1689,1715,1732,1726,1726,1732,1740,1749,1754,1753,1753,1752,1753,1753,1757,1756,0,0,0,1990,0,0,0,1448,1443,1444,1446,1449,1448,1448,1449,0,0,2276,2278,2279,2280,2289,2293,2297,2301,2304,2311,2312,2315,2318,2323,2328,2332,2334,2337,2339,2343,2343,2345,2346,2349,2352,2354,2355,2356,2357,2360,2362,2361,2364,2364,2367,2366,2368,2369,2367,2369,2368,2362,2358,2354,2357,2359,2364,2367,2371,2381,2387,2343,2289,2278,2287,0,0,0,0,0,0,2382,2398,2398,2398,2393,2388,2379,2375,2371,2369,2368,2367,2366,2360,2354,2349,2349,2350,2349,2349,2350,2354,2354,2353,2351,2348,2346,2346,2346,2345,2341,2337,2337,2337,2338,2332,2333,2328,2321,2314,2310,2307,2301,2296,2292,2291,2291,2286,2285,2283,2281,2275,2273,2272,2272,2271,2270,2267,2264,2260,2260,2262,2265,2262,2262,2261,2265,2264,2267,2267,2267,2265,2264,2266,2267,2270,2271,2275,2274,2275,2275,2280,2283,2285,2287,2288,2290,2290,2292,2295,2296,2296,2295,2295,2298,2301,2303,2304,2303,2303,2306,2312,2314,2316,2316,2320,2319,2317,2315,2317,2321,2321,2319,2320,2321,2326,2328,2330,2330,2331,2330,2329,2324,2326,2331,2334,2334,2332,2333,2335,2335,2335,2334,2337,2341,2344,2344,2343,2345,2350,2354,2354,2356,2356,2355,2350,2353,2356,2358,2357,2359,2360,2364,2367,2367,2366,2364,2367,2369,2371,2371,2372,2369,2368,2368,2368,2368,2372,2375,2372,2371,2376,2380,2383,2386,2387,2389,2389,2394,2395,2396,2398,2400,2401,2404,2406,2409,2410,2414,2416,2418,2419,2424,2426,2424,2421,2421,2424,2423,2422,2419,2422,2420,2418,2414,2413,2414,2413,2417,2418,2420,2416,2415,2415,2417,2417,2415,2413,2413,2413,2415,2416,2417,2414,2415,2413,2415,2416,2418,2420,2422,2423,2424,2422,2420,2420,2426,2436,2438,2441,2441,2448,2450,2448,0,0,0,0,0,1462,0,0,0,0,0,0,0,0,0,0,0,0,0,0,0,0,0,0,0,0,0,1455,0,0,0,0,0,0,0,0,0,1426,0,0,0,0,0,0,2449,2449,0,0,0,0,0,0,0,0,0,0,2393,0,0,2393,2370,0,2305,0,0,0,0,0,0,0,0,0,0,0,0,0,0,0,0,2205,2198,2198,2197,2203,2198,2190,2177,2143,0,0,2010,2001,1991,1970,0,0,0,0,0,0,0,0,0,0,0,0,0,0,0,0,0,0,0,0,0,0,0,0
