0,0,0,0,0,0,0,0,0,1396,1403,1408,1414,1420,1429,1443,1452,1461,1466,1478,1487,1499,1509,1517,1530,1546,1553,1558,1563,1566,1577,1587,1602,1611,1619,1627,1633,1637,1645,1651,1663,1680,1696,1709,0,0,0,0,0,0,1410,1392,1392,1399,1421,0,1677,1702,1741,1741,1735,1736,1736,1743,1746,1748,1751,1753,1754,1755,1756,1754,0,0,0,0,0,0,0,1443,1457,1455,1454,1453,1458,1463,1466,0,0,2266,2275,2284,2288,2289,2291,2294,2297,2300,2304,2310,2315,2320,2323,2326,2330,2333,2335,2338,2341,2343,2344,0,2347,2351,2354,2358,2358,2359,2359,2359,2359,2362,2368,2372,2367,0,0,1471,1471,1471,1471,1471,0,0,2360,2358,2366,2379,2391,2392,2346,2280,2274,2280,2359,2416,2413,2407,2406,2407,2407,2407,2404,2399,2388,2379,2374,2369,2366,2362,2358,2356,2351,2349,2343,2341,2341,2340,2341,2341,2344,2344,2342,2340,2341,2342,2344,2345,2345,2345,2343,2343,2342,2340,2338,2334,2330,2325,2320,2316,2314,2312,2312,2308,2306,2299,2296,2289,2286,2276,2276,2270,2274,2268,2268,2267,2267,2266,2265,2265,2264,2264,2263,2264,2260,2262,2264,2266,2264,2265,2267,2270,2270,2270,2270,2272,2273,2275,2276,2277,2278,2279,2282,2286,2290,2291,2294,2297,2299,2303,2307,2309,2309,2315,2321,2321,2322,2325,2321,2320,2323,2327,2332,2331,2331,2332,2333,2331,2331,2329,2330,2335,2340,2337,2336,2343,2350,2349,2349,2349,2352,2351,2354,2355,2356,2355,2357,2360,2362,2363,2363,2360,2361,2362,2364,2363,2367,2369,2367,2365,2367,2365,2365,2364,2366,2363,2366,2368,2374,2372,2374,0,0,0,0,2366,2368,2365,0,0,1575,1568,1567,1567,1567,1565,1566,1568,1570,1570,1571,1571,1570,1571,1573,1576,1571,0,0,1559,1558,1561,1561,1564,1563,1552,0,2449,2452,2460,2468,2473,2475,2476,2484,2495,2501,2502,2504,2510,2516,2518,2521,2522,2519,2516,2508,2500,2490,2482,2475,2470,2470,2470,2469,2466,2462,2462,2460,2459,2456,2457,2456,2456,2454,2454,2452,2453,2458,2459,2458,2457,2460,2465,2468,2481,2487,2504,2504,2511,2508,0,0,0,0,1372,1427,1384,1378,1411,1412,1435,0,0,0,0,0,0,0,0,0,0,0,0,0,0,0,0,0,0,0,0,0,0,0,0,0,0,0,0,0,0,1400,0,1413,1458,0,0,1343,0,0,0,0,0,0,0,0,0,0,0,0,0,0,0,0,0,0,0,0,0,0,0,0,0,0,0,0,0,0,0,0,0,0,0,2175,2178,2177,2176,2176,2170,2153,2123,0,0,0,0,0,0,0,0,0,0,0,0,0,0,0,0,0,0,0,0,0,0,0,0,0,0,0,0,0,0
0,0,0,0,0,0,0,0,1384,1387,1402,1406,1418,1431,1438,1436,1451,1468,1484,1484,1492,1501,1516,1529,1536,1541,1543,1555,1562,1569,1580,1588,1604,1609,1618,1622,1633,1643,1649,1655,1669,1676,1692,1705,1722,0,0,0,0,0,1418,1398,1396,1403,1425,0,1675,1718,1739,1742,1738,1740,1739,1748,1747,1747,1748,1753,1753,1755,1756,1754,0,0,0,0,0,0,0,1447,1454,1453,1455,1455,1459,1462,1467,0,0,2266,2273,2280,2285,2288,2292,2295,2297,2300,2305,2311,2315,2320,2324,2328,2330,2332,2333,2336,2340,2343,0,0,2348,2350,2353,2356,2357,2358,2359,2360,2361,2361,2364,2361,2360,0,0,1467,0,0,0,1473,0,0,2355,2358,2365,2378,2392,2394,2346,2282,2277,2283,2359,2411,2409,2407,2410,2411,2409,2408,2404,2399,2384,2375,2369,2369,2369,2366,2362,2359,2355,2351,2344,2341,2340,2341,2340,2342,2344,2343,2342,2341,2342,2342,2344,2346,2346,2345,2344,2341,2341,2339,2336,2333,2329,2326,2321,2316,2313,2309,2309,2307,2306,2300,2295,2291,2288,2282,2280,2274,2275,2271,2271,2271,2271,2271,2267,2267,2267,2267,2266,2265,2262,2265,2266,2269,2269,2270,2272,2272,2273,2273,2276,2277,2278,2278,2280,2283,2284,2287,2290,2292,2294,2295,2299,2302,2303,2307,2311,2315,2316,2320,2324,2325,2323,2324,2324,2323,2328,2332,2338,2336,2338,2339,2341,2341,2338,2334,2336,2341,2347,2345,2345,2347,2352,2353,2352,2353,2353,2354,2357,2359,2356,2356,2359,2364,2368,2369,2370,2364,2367,2365,2366,2366,2370,2371,2369,2369,2370,2371,2371,2370,2371,2369,2371,2370,2374,2373,2378,2378,2380,2375,2376,2376,2376,2372,2365,0,0,1570,1569,1569,1568,1566,1566,1567,1570,1571,1572,1572,1570,1571,1572,1574,0,0,0,1557,1564,1562,1561,1562,1558,0,0,2449,2455,2459,2467,2471,2473,2476,2482,2493,2498,2499,2500,2507,2514,2518,2519,2515,2510,2504,2495,2486,2478,2472,2467,2464,2465,2466,2467,2464,2461,2458,2457,2457,2457,2455,2453,2451,2450,2450,2449,2452,2456,2459,2458,2456,2457,2461,2465,2474,2482,2489,2496,2506,0,0,0,0,0,0,1361,1342,0,1417,1397,1483,1475,0,0,1418,0,0,1535,1468,0,0,0,0,0,0,0,0,0,0,0,0,0,0,0,0,0,0,0,0,0,0,0,1400,0,1423,0,0,0,0,0,0,0,0,0,0,0,0,0,0,0,0,0,0,0,0,0,0,0,0,0,0,0,0,0,0,0,0,0,0,0,0,0,2176,2203,2202,2198,2190,2187,2181,2171,2128,0,0,0,0,0,0,0,0,0,0,0,0,0,0,0,0,0,0,0,0,0,0,0,0,0,0,0,0,0,0
0,0,0,0,0,0,0,0,1365,1393,1402,1402,1416,1437,1445,1437,1448,1471,1477,1488,1500,1507,1511,1530,1534,1538,1537,1551,1563,1578,1586,1594,1604,1608,1618,1622,1634,1642,1652,1663,1674,1687,1691,1706,1716,0,0,0,0,0,1411,1400,1396,1402,1426,0,1692,1720,1742,1742,1739,1742,1741,1747,1746,1745,1745,1751,1752,1754,1754,1753,0,0,0,0,0,0,0,1447,1451,1450,1452,1453,1454,1457,1463,0,0,2264,2269,2278,2284,2288,2290,2295,2298,2303,2307,2312,2315,2321,2323,2324,2326,2329,2331,2335,2339,2343,0,0,0,0,0,2353,2355,2356,2359,2360,2361,2363,2365,2362,2358,0,0,1464,0,0,0,1469,0,0,2350,2354,2364,2380,2396,2400,2344,2276,2273,2281,2359,2408,2409,2411,2415,2416,2411,2407,2400,2396,2386,2378,2370,2369,2368,2366,2364,2362,2358,2354,2347,2347,2344,2341,2337,2339,2341,2343,2342,2343,2342,2343,2344,2346,2347,2346,2344,2341,2338,2335,2332,2330,2327,2323,2316,2312,2310,2308,2310,2307,2305,2299,2293,2290,2288,2282,2279,2273,2276,2274,2273,2273,2272,2271,2268,2268,2268,2268,2269,2267,2265,2265,2268,2269,2269,2269,2271,2271,2273,2274,2276,2276,2276,2277,2279,2281,2285,2289,2293,2294,2296,2296,2298,2300,2301,2306,2311,2315,2317,2319,2323,2323,2321,2320,2320,2323,2327,2333,2334,2332,2332,2335,2339,2339,2336,2336,2339,2343,2344,2344,2345,2348,2353,2353,2350,2350,2350,2352,2355,2357,2354,2355,2361,2365,2370,2369,2369,2362,2363,2360,2363,2367,2372,2371,2367,2368,2368,2368,2370,2371,2375,2374,2373,2368,2370,2370,2375,2375,2379,2379,2380,2377,2376,2371,2368,2356,0,0,1573,1570,1569,1567,1568,1568,1569,1571,1572,1573,1572,1571,1571,1570,0,0,0,0,1564,1563,1558,1560,1560,0,0,2449,2451,2455,2461,2468,2472,2476,2481,2488,2490,2493,2497,2507,2512,2513,2507,2503,2494,2488,2476,2471,2468,2466,2465,2464,2465,2466,2465,2462,2457,2455,2452,2455,2455,2454,2450,2446,2444,2445,2444,2446,2451,2454,2454,2453,2455,2460,2462,2468,2465,2465,0,0,0,0,0,0,0,0,0,0,0,0,0,0,0,0,0,0,0,0,0,0,0,0,0,0,0,0,1431,0,0,0,0,0,0,0,0,0,0,0,0,0,0,1397,1391,0,0,1413,1422,0,0,0,0,0,0,0,0,0,0,0,0,0,0,2329,0,0,0,0,0,0,0,0,0,0,0,0,0,0,0,0,0,0,0,0,0,2197,2209,2209,2205,2201,2196,2188,2176,2145,0,0,0,0,0,0,0,0,0,0,0,0,0,0,0,0,0,0,0,0,0,0,0,0,0,0,0,0,0,0
0,0,0,0,0,0,0,0,0,1388,1403,1406,1416,1430,1445,1444,1459,1466,1474,1482,1512,1508,1508,1515,1530,1532,1533,1544,1555,1578,1584,1586,1595,1602,1609,1621,1634,1642,1650,1663,1676,1685,1691,1700,0,0,0,0,0,0,1391,1398,1400,1408,1432,0,1700,1725,1745,1738,1737,1739,1743,1747,1747,1745,1747,1752,1753,1754,1753,1753,0,0,0,0,0,0,0,1447,1449,1451,1452,1452,1450,1452,1455,0,0,2264,2269,2278,2283,2288,2290,2295,2298,2303,2306,2310,2315,2321,2325,2325,2327,2329,2331,2335,2338,2343,2346,0,2350,2350,2352,2353,2356,2356,2358,2359,2360,2360,2362,2364,2363,0,0,1462,0,0,0,1467,0,0,2351,2355,2364,2377,2389,2395,2339,2279,2276,2285,2361,2410,2411,2413,2417,2418,2412,2405,2396,2394,2388,2381,2372,2370,2369,2367,2364,2360,2357,2354,2350,2348,2342,2341,2339,2341,2342,2341,2342,2341,2342,2341,2343,2345,2348,2346,2344,2339,2338,2333,2330,2327,2327,2323,2317,2313,2309,2304,2304,2301,2298,2292,2289,2286,2285,2281,2279,2272,2273,2271,2270,2270,2271,2270,2266,2267,2267,2268,2267,2265,2264,2263,2265,2264,2265,2266,2270,2270,2272,2273,2276,2275,2277,2276,2279,2282,2286,2289,2292,2294,2299,2299,2299,2300,2303,2307,2311,2315,2316,2316,2320,2319,2317,2315,2317,2322,2326,2328,2329,2329,2331,2334,2338,2341,2341,2342,2341,2341,2342,2345,2349,2349,2352,2349,2347,2346,2344,2349,2349,2352,2352,2353,2361,2364,2370,2369,2368,2362,2360,2358,2363,2368,2370,2370,2366,2367,2365,2365,2368,2368,2373,2373,2372,2367,2369,2371,2372,2370,2371,2370,2372,2371,2373,2370,2369,2365,2367,0,0,1574,1570,1570,1570,1568,1568,1571,1573,1575,1574,1573,1571,1565,0,2385,2387,0,1561,1561,0,1563,1562,0,0,2444,2448,2452,2459,2466,2470,2474,2477,2484,2485,2489,2495,2504,2507,2503,2496,2490,2483,2475,2464,2458,2457,2460,2464,2465,2464,2462,2460,2458,2453,2451,2452,2453,2452,2450,2446,2441,2439,2440,2442,2445,2450,2452,2451,2449,2451,2456,2462,2464,2460,2441,0,0,0,0,0,0,0,0,0,0,0,0,0,0,0,0,0,0,0,0,0,0,0,0,0,0,0,0,0,0,0,0,0,0,0,0,0,0,0,0,0,0,0,0,1426,0,0,1380,0,0,0,2451,0,0,0,0,0,0,0,0,0,0,0,0,0,0,0,0,0,0,0,0,0,0,0,0,0,0,0,0,0,0,0,0,0,2197,2210,2210,2206,2202,2198,2188,2175,2118,0,0,0,0,0,0,0,0,0,0,0,0,0,0,0,0,0,0,0,0,0,0,0,0,0,0,0,0,0,0
0,1453,0,0,0,0,0,0,0,1383,1401,1410,1416,1436,1440,1447,1456,1467,1475,1481,1505,1506,1507,1505,1519,1535,1543,1553,1559,1578,1581,1587,1595,1606,1610,1620,1633,1644,1650,1661,1667,1678,1684,1695,0,0,0,0,0,0,1388,1397,1399,1410,1430,0,1704,1725,1746,1739,1738,1742,1746,1747,1748,1747,1748,1749,1751,1752,1752,1752,0,0,0,0,0,0,0,0,1453,1451,1448,1448,1447,1451,1451,0,0,2267,2271,2279,2282,2287,2290,2296,2299,2305,2308,2311,2314,2319,2323,2325,2326,2329,2333,2338,2339,2343,2346,2350,2353,2353,2354,2354,2357,2358,2359,2360,2360,2361,2360,2363,2364,2367,0,0,0,1465,1467,1466,0,2348,2350,2354,2363,2376,2386,2391,2332,2279,2276,2287,2369,2418,2416,2414,2415,2416,2409,2402,2396,2394,2388,2381,2375,2371,2368,2364,2363,2360,2357,2352,2349,2349,2344,2342,2340,2342,2342,2342,2342,2342,2343,2344,2345,2345,2347,2346,2344,2339,2337,2330,2328,2324,2325,2318,2313,2312,2310,2306,2306,2302,2298,2291,2287,2283,2282,2277,2276,2272,2274,2271,2269,2269,2268,2267,2265,2266,2268,2269,2268,2264,2264,2263,2265,2263,2263,2265,2270,2273,2272,2271,2273,2275,2278,2277,2278,2279,2282,2285,2289,2292,2295,2298,2299,2301,2302,2305,2306,2310,2312,2313,2315,2317,2318,2317,2317,2321,2321,2324,2326,2327,2329,2330,2332,2334,2336,2340,2340,2339,2339,2342,2347,2348,2350,2348,2347,2344,2344,2347,2347,2347,2350,2354,2360,2360,2362,2361,2362,2359,2359,2358,2364,2367,2367,2366,2364,2364,2365,2366,2368,2369,2371,2370,2369,2368,2369,2369,2369,2367,2366,2367,2369,2371,2371,2371,2372,2370,2372,2371,2369,0,0,0,1578,0,0,1572,1576,1579,1577,0,0,0,0,2387,0,0,1558,1558,1562,1566,1564,0,2452,2445,2445,2449,2456,2463,2469,2475,2478,2483,2483,2488,2492,2497,2492,2484,2475,2474,2471,2466,2455,2451,2450,2454,2456,2456,2456,2455,2454,2452,2446,2445,2445,2447,2445,2442,2441,2439,2438,2437,2438,2441,2445,2449,2450,2448,2450,2452,2456,2457,2452,2445,0,0,0,0,0,0,0,0,0,0,0,0,0,0,0,0,0,0,0,0,0,0,0,0,0,0,1489,1451,1453,0,0,0,0,0,0,0,0,0,0,0,0,0,0,0,0,1442,1398,0,0,0,2431,2448,2475,0,0,0,0,0,0,0,0,0,0,0,0,0,0,0,0,0,0,0,0,0,0,0,0,0,0,0,0,0,0,0,0,2179,2200,2206,2205,2201,2198,2192,2181,2139,0,0,0,1995,0,0,0,0,0,0,0,0,0,0,0,0,0,0,0,0,0,0,0,0,0,0,0,0,0,0
0,0,0,0,0,0,0,0,1357,1388,1391,1405,1415,1425,1445,1450,1449,1465,1474,1475,1487,1516,1509,1513,1521,1542,1551,1563,1566,1573,1573,1582,1595,1614,1617,1621,1627,1639,1649,1658,1666,1671,1679,1692,0,0,0,0,0,0,1391,1396,1399,1409,1426,0,1705,1722,1743,1740,1739,1740,1747,1749,1751,1749,1750,1751,1752,1754,1754,1755,0,0,0,0,0,0,0,0,1449,1450,1448,1449,1448,1451,1452,0,0,2267,2272,2278,2280,2287,2291,2297,2300,2305,2309,2312,2314,2318,2325,2331,2332,2333,2335,2341,2342,2344,2347,2351,2353,2354,2356,2358,2359,2359,2360,2360,2361,2361,2360,2361,2364,2364,2363,0,0,0,0,0,2355,2352,2351,2350,2356,2366,2376,2383,2340,2285,2282,2294,2372,2418,2416,2414,2413,2410,2406,2402,2403,2399,2389,2378,2373,2369,2367,2365,2365,2364,2359,2354,2350,2347,2344,2343,2344,2343,2343,2340,2342,2341,2344,2344,2347,2346,2345,2343,2342,2339,2339,2332,2329,2323,2322,2315,2313,2314,2313,2309,2306,2301,2296,2290,2286,2283,2280,2276,2275,2272,2272,2270,2267,2266,2264,2263,2264,2265,2266,2267,2266,2263,2263,2262,2264,2261,2261,2263,2268,2271,2270,2270,2271,2274,2278,2280,2282,2282,2281,2284,2287,2291,2293,2295,2299,2301,2303,2302,2302,2305,2310,2312,2313,2313,2315,2318,2318,2319,2316,2319,2323,2329,2330,2332,2331,2332,2333,2335,2336,2337,2338,2341,2341,2342,2345,2348,2348,2345,2344,2345,2347,2347,2352,2352,2355,2358,2360,2360,2360,2359,2360,2358,2363,2364,2362,2361,2361,2362,2364,2364,2366,2367,2367,2366,2365,2367,2369,2369,2368,2367,2365,2364,2366,2371,2372,2371,2372,2371,2372,2370,2371,2367,2366,2366,0,0,0,0,0,2369,2377,2378,2379,2379,2382,2387,2391,0,0,0,0,0,0,0,2438,2439,2445,2450,2455,2457,2465,2471,2475,2479,2481,2482,2482,2481,2479,2470,2466,2465,2464,2460,2449,2446,2445,2448,2448,2448,2447,2448,2450,2450,2444,2440,2439,2440,2439,2436,2438,2439,2438,2437,2438,2441,2444,2448,2450,2448,2449,2449,2452,2453,2453,2447,0,0,0,0,0,0,0,0,0,0,0,0,0,0,0,0,0,1326,0,0,1408,0,0,1496,0,0,1478,1430,0,0,0,0,0,0,0,0,0,0,0,0,0,0,0,0,0,0,0,0,1350,0,2435,2452,2456,0,0,0,0,0,1317,0,0,0,0,0,0,0,0,0,0,0,0,0,0,0,0,0,0,0,0,0,0,0,0,0,0,2184,2200,2208,2206,2199,2196,2191,2183,2148,0,0,0,1998,1984,0,0,0,0,0,0,0,0,0,0,0,0,0,0,0,0,0,0,0,0,0,0,0,0,0
0,0,0,0,0,0,0,0,0,1390,1394,1403,1410,1433,1446,1439,1434,1442,1461,1479,1490,1498,1521,1510,1543,1543,1556,1569,1579,1582,1582,1584,1594,1618,1623,1628,1636,1648,1660,1665,1671,1678,1690,1697,1730,0,0,0,0,0,0,1397,1396,1405,1426,0,1696,1709,1734,1741,1741,1743,1749,1755,1751,1749,1748,1749,1750,1752,1752,1753,0,0,0,0,0,0,0,0,1451,1449,1447,1448,1447,1448,1449,0,0,2265,2269,2276,2280,2288,2292,2296,2299,2305,2310,2314,2315,2319,2323,2329,2331,2334,2337,2344,2345,2345,2347,2350,2352,2355,2357,2359,2359,2360,2361,2362,2362,2362,2362,2362,2363,2363,2365,2366,2367,2369,2367,2364,2362,2357,2351,2349,2354,2366,2380,2387,2346,2284,2282,2297,2374,2423,2419,2419,2417,2411,2406,2401,2401,2396,2387,2378,2371,2366,2364,2363,2363,2362,2358,2352,2349,2347,2345,2344,2345,2344,2343,2342,2344,2345,2345,2347,2348,2348,2343,2340,2338,2338,2338,2333,2332,2327,2326,2316,2313,2311,2311,2306,2304,2301,2296,2291,2287,2285,2284,2279,2278,2274,2274,2272,2269,2267,2263,2262,2263,2263,2263,2264,2263,2262,2261,2262,2264,2263,2262,2262,2266,2270,2269,2271,2272,2274,2276,2280,2282,2282,2280,2284,2285,2289,2289,2293,2296,2298,2298,2297,2299,2300,2305,2306,2309,2310,2314,2317,2317,2316,2314,2318,2323,2326,2326,2326,2326,2327,2327,2331,2332,2336,2335,2336,2334,2336,2340,2343,2345,2344,2346,2345,2347,2345,2348,2347,2352,2353,2354,2352,2354,2355,2357,2357,2359,2360,2358,2358,2357,2357,2359,2361,2364,2364,2363,2364,2364,2366,2366,2367,2366,2367,2368,2367,2369,2371,2373,2372,2371,2369,2369,2368,2370,2371,2374,2374,2374,2374,2376,2374,2378,2379,2387,2385,2387,2385,2385,2386,2386,2388,2391,0,0,0,2397,2406,2422,2434,2443,2447,2452,2454,2462,2465,2469,2471,2472,2469,2469,2468,2467,2458,2452,2452,2452,2452,2445,2448,2450,2451,2443,2440,2438,2443,2443,2444,2439,2436,2435,2437,2435,2433,2436,2438,2437,2433,2433,2436,2439,2445,2445,2446,2445,2446,2446,2448,2450,2449,2440,0,0,0,0,0,0,0,0,0,0,0,0,0,0,0,0,0,0,0,0,0,0,0,0,0,0,1452,0,0,0,0,0,0,0,0,0,0,0,0,0,0,0,1421,1402,0,1355,1339,1328,0,2445,2457,2469,0,0,0,0,0,1316,0,0,0,2358,0,2357,2333,0,0,0,0,0,0,0,0,0,0,0,0,0,0,0,0,0,0,0,0,2201,2204,2203,2200,2198,2194,2185,2147,0,0,0,1993,1983,0,0,0,0,0,0,0,0,0,0,0,0,0,0,0,0,0,0,0,0,0,0,0,0,0
0,0,0,0,0,0,0,0,0,1393,1396,1400,1409,1432,1459,1446,1438,1443,1462,1483,1487,1505,1529,1530,1532,1543,1556,1569,1585,1589,1587,1586,1597,1611,1619,1628,1635,1646,1660,1668,1676,1684,1701,1707,0,0,0,0,0,0,0,1399,1399,1409,1433,0,1682,1699,1730,1739,1742,1743,1745,1748,1745,1748,1750,1752,1752,1754,1756,1755,0,0,0,0,0,0,0,1451,1449,1448,1449,1449,1450,1451,1452,0,0,2265,2273,2277,2282,2286,2291,2295,2299,2304,2307,2311,2314,2318,2324,2330,2335,2335,2337,2341,2344,2345,2346,2348,2350,2353,2356,2360,2361,2360,2360,2360,2361,2362,2363,2364,2365,2365,2367,2369,2369,2368,2364,2364,2367,2365,2359,2350,2355,2365,2379,2382,2337,2285,2283,2301,2380,2425,2421,2423,2421,2415,2406,2402,2402,2400,2392,2382,2372,2365,2364,2363,2364,2361,2359,2355,2350,2345,2343,2342,2342,2340,2343,2342,2344,2345,2345,2348,2347,2348,2342,2338,2335,2336,2337,2335,2332,2328,2326,2322,2317,2314,2311,2307,2302,2298,2295,2292,2289,2287,2285,2281,2278,2273,2272,2272,2271,2266,2262,2261,2262,2262,2261,2261,2260,2261,2262,2263,2267,2265,2264,2260,2263,2265,2265,2269,2271,2274,2273,2277,2278,2279,2278,2284,2285,2288,2290,2292,2295,2295,2298,2297,2298,2298,2302,2305,2307,2307,2309,2312,2315,2316,2315,2317,2320,2322,2322,2323,2325,2327,2329,2328,2328,2330,2332,2333,2331,2333,2338,2341,2343,2342,2344,2344,2348,2347,2348,2344,2347,2348,2351,2351,2353,2353,2354,2353,2355,2357,2355,2355,2354,2354,2354,2356,2358,2360,2359,2361,2361,2365,2364,2368,2368,2370,2369,2368,2368,2372,2374,2372,2368,2367,2367,2368,2369,2371,2374,2376,2377,2374,2375,2376,2380,2381,2388,2388,2389,2387,2388,2386,2387,2389,2393,2396,2397,2397,2401,2405,2414,2422,2434,2440,2446,2450,2456,2456,2459,2461,2461,2455,2455,2452,2452,2447,2445,2446,2445,2446,2443,2446,2449,2447,2439,2435,2433,2437,2438,2441,2438,2435,2434,2432,2430,2428,2430,2433,2433,2433,2430,2429,2430,2436,2437,2439,2439,2444,2447,2449,2450,2449,2452,2451,0,0,0,0,0,0,0,0,0,0,0,0,0,0,0,0,0,0,0,0,0,0,0,0,0,0,0,0,0,0,0,0,0,0,0,0,0,0,0,0,0,1437,0,1399,0,0,0,0,2462,2465,2471,0,0,0,0,0,0,0,0,0,0,2346,2361,0,2351,2324,0,0,0,0,0,0,0,0,0,0,0,0,0,0,0,0,0,2196,2202,2202,2202,2202,2201,2193,2181,2144,0,0,0,1992,1985,0,0,0,0,0,0,0,0,0,0,0,0,0,0,0,0,0,0,0,0,0,0,0,0,0
0,0,0,0,0,0,0,0,1379,1394,1402,1406,1407,1431,1446,1475,1456,1455,1462,1476,1491,1493,1519,1537,1531,1539,1553,1559,1575,1584,1592,1600,1600,1602,1612,1633,1638,1643,1656,1664,1671,1689,1715,1722,0,0,0,0,0,0,1388,1397,1400,1409,1433,0,1683,1702,1730,1744,1746,1744,1746,1742,1738,1743,1749,1752,1751,1753,1757,1757,0,0,0,0,0,0,0,1447,1450,1447,1448,1447,1448,1448,1450,0,0,2271,2278,2281,2282,2283,2289,2295,2299,2303,2307,2311,2313,2316,2323,2329,2334,2335,2337,2340,2343,2344,2345,2348,2351,2354,2358,2361,2362,2361,2360,2361,2361,2363,2364,2366,2366,2366,2367,2371,2372,2370,2362,2359,2362,2364,2363,2357,2361,2372,2386,2385,2335,2289,2286,2305,2381,2428,2423,2425,2422,2417,2407,2401,2400,2395,2391,2382,2374,2365,2362,2359,2359,2356,2357,2352,2347,2342,2339,2338,2337,2339,2343,2344,2344,2346,2346,2349,2347,2349,2344,2340,2334,2334,2334,2333,2330,2329,2330,2326,2320,2313,2310,2305,2300,2295,2293,2291,2290,2286,2287,2282,2278,2272,2273,2273,2272,2267,2265,2264,2263,2263,2262,2263,2261,2262,2261,2264,2266,2265,2265,2263,2265,2266,2264,2267,2269,2275,2275,2275,2274,2277,2279,2284,2286,2289,2290,2291,2294,2294,2297,2299,2301,2300,2301,2301,2303,2305,2306,2307,2311,2312,2316,2316,2319,2320,2320,2321,2325,2327,2329,2327,2325,2326,2328,2330,2331,2331,2335,2338,2341,2340,2340,2341,2342,2342,2344,2345,2347,2345,2346,2345,2349,2352,2354,2354,2354,2356,2353,2354,2352,2353,2354,2357,2358,2359,2359,2362,2362,2364,2363,2367,2367,2368,2368,2368,2367,2370,2372,2371,2367,2366,2366,2368,2368,2371,2373,2375,2374,2372,2376,2379,2382,2384,2387,2387,2388,2388,2389,2387,2387,2388,2391,2393,2395,2398,2402,2407,2410,2415,2421,2430,2441,2446,2449,2448,2451,2453,2453,2449,2445,2442,2442,2439,2437,2438,2439,2442,2442,2443,2444,2441,2436,2432,2431,2433,2435,2437,2435,2431,2430,2427,2425,2422,2423,2426,2428,2429,2426,2423,2423,2430,2431,2433,2431,2439,2442,2443,2446,2450,2456,2454,2456,0,0,0,0,0,0,0,0,0,0,0,0,0,0,0,0,0,0,0,0,0,0,0,1513,1495,0,1478,0,0,0,0,0,0,0,0,0,0,0,0,0,1448,1429,1412,0,0,0,0,2457,2461,2482,0,0,0,0,0,0,0,0,0,0,2344,2344,0,0,0,0,0,0,0,0,0,0,0,0,0,0,0,0,0,0,0,0,2201,2196,2197,2198,2200,2197,2192,2180,2144,0,0,0,1993,1984,1966,0,0,0,0,0,0,0,0,0,0,0,0,0,0,0,0,0,0,0,0,0,0,0,0
0,0,0,0,0,0,0,0,0,1390,1402,1409,1410,1414,1435,1455,1478,1450,1453,1485,1496,1501,1517,1530,1537,1544,1556,1561,1566,1571,1579,1593,1602,1598,1604,1633,1636,1635,1647,1659,1671,1687,1714,1732,0,0,0,0,0,0,1403,1397,1399,1410,1433,0,1695,1711,1739,1746,1747,1742,1745,1739,1735,1740,1747,1752,1752,1755,1758,1759,0,0,0,2031,0,0,0,1442,1442,1443,1446,1447,1450,1452,1454,0,0,2277,2285,2284,2285,2284,2290,2296,2301,2305,2307,2309,2311,2314,2323,2328,2334,2334,2337,2339,2343,2344,2346,2348,2351,2354,2356,2358,2360,2361,2361,2362,2363,2364,2364,2365,2366,2366,2368,2370,2369,2367,2360,2356,2358,2361,2365,2362,2365,2373,2382,2382,2337,2290,2285,2302,2374,2425,2422,2423,2421,2417,2411,2404,2405,2398,2395,2385,2376,2366,2363,2362,2361,2358,2358,2355,2350,2344,2340,2337,2336,2337,2340,2342,2344,2346,2347,2349,2347,2347,2345,2342,2337,2335,2333,2332,2326,2325,2325,2325,2320,2316,2314,2311,2303,2295,2294,2294,2292,2285,2282,2277,2273,2271,2271,2271,2268,2265,2265,2265,2264,2263,2263,2263,2261,2261,2262,2263,2266,2265,2265,2263,2265,2266,2263,2265,2267,2273,2274,2273,2273,2276,2280,2283,2285,2288,2288,2287,2292,2293,2298,2298,2299,2299,2297,2301,2302,2305,2305,2306,2309,2310,2314,2313,2317,2318,2319,2320,2322,2327,2329,2327,2323,2323,2324,2327,2328,2333,2337,2341,2341,2338,2337,2338,2340,2341,2343,2344,2345,2344,2342,2341,2345,2349,2349,2349,2351,2353,2350,2351,2352,2356,2356,2357,2359,2361,2362,2362,2360,2360,2359,2362,2362,2367,2369,2370,2369,2372,2370,2366,2363,2362,2363,2366,2368,2370,2370,2374,2373,2372,2375,2380,2382,2382,2383,2385,2386,2389,2389,2388,2387,2389,2391,2393,2396,2399,2402,2406,2407,2409,2410,2418,2426,2434,2439,2441,2444,2445,2446,2443,2440,2438,2437,2434,2435,2436,2438,2439,2438,2434,2432,2430,2432,2429,2430,2430,2431,2434,2433,2431,2429,2425,2422,2417,2418,2420,2425,2428,2427,2421,2419,2424,2429,2431,2432,2439,2442,2444,2444,2448,2453,2450,2449,2427,0,0,0,0,0,0,0,0,1426,0,1382,1357,0,0,0,0,0,0,0,0,0,0,1420,1466,1473,0,0,0,0,0,0,0,0,0,0,0,0,0,0,1464,1433,1382,1399,0,0,0,2455,2463,2493,0,0,0,0,0,1306,0,0,0,0,2356,2324,2326,0,0,0,0,0,0,0,0,0,0,0,0,0,0,0,0,0,0,0,2180,2194,2198,2198,2202,2194,2190,2179,2150,0,0,0,1994,1987,1971,0,0,0,0,0,0,0,0,0,0,0,0,0,0,0,0,0,0,0,0,0,0,0,0
0,0,0,0,0,0,0,0,0,1393,1404,1417,1412,1415,1435,1460,1461,1440,1459,1477,1492,1504,1518,1526,1540,1546,1552,1557,1558,1565,1571,1589,1595,1596,1595,1617,1633,1639,1646,1661,1672,1684,1700,1722,0,0,0,0,0,0,1395,1394,1396,1407,1432,0,1704,1728,1749,1749,1745,1738,1741,1741,1741,1741,1745,1750,1751,1754,1756,1759,0,0,0,0,0,0,0,1439,1441,1444,1446,1446,1448,1449,1451,0,0,2275,2284,2287,2289,2286,2288,2293,2300,2305,2307,2311,2313,2318,2323,2329,2333,2334,2337,2340,2344,2346,2347,2349,2351,2355,2356,2358,2359,2360,2361,2362,2364,2365,2365,2365,2363,2364,2365,2367,2362,2360,2356,2354,2354,2356,2361,2364,2369,2377,2384,2387,2345,2294,2285,2296,2360,2418,2417,2419,2420,2418,2414,2407,2405,2395,2392,2383,2376,2369,2362,2361,2357,2357,2356,2354,2350,2345,2342,2339,2337,2337,2340,2344,2346,2347,2346,2348,2346,2349,2346,2343,2339,2337,2333,2331,2329,2328,2326,2322,2318,2313,2312,2310,2305,2298,2294,2293,2291,2285,2283,2279,2276,2273,2272,2271,2269,2267,2268,2267,2265,2263,2261,2263,2260,2263,2261,2262,2263,2264,2264,2264,2263,2265,2263,2267,2267,2272,2272,2272,2274,2277,2280,2282,2284,2285,2285,2285,2290,2293,2296,2298,2299,2298,2296,2298,2301,2305,2306,2305,2306,2308,2310,2311,2314,2318,2318,2318,2319,2324,2326,2327,2325,2327,2323,2327,2327,2333,2335,2337,2338,2335,2333,2332,2335,2336,2337,2340,2344,2342,2339,2339,2343,2348,2346,2347,2348,2351,2350,2351,2353,2357,2357,2356,2357,2359,2364,2363,2362,2359,2357,2357,2356,2362,2367,2371,2371,2369,2366,2362,2362,2362,2363,2365,2365,2368,2366,2369,2371,2374,2378,2381,2382,2380,2379,2382,2385,2391,2389,2390,2388,2392,2394,2396,2400,2402,2402,2403,2403,2405,2408,2413,2422,2424,2431,2432,2438,2438,2440,2437,2436,2433,2432,2430,2430,2432,2431,2434,2432,2429,2424,2423,2428,2429,2429,2429,2429,2430,2429,2429,2428,2424,2423,2419,2419,2419,2420,2424,2425,2423,2421,2422,2426,2429,2431,2435,2438,2441,2443,2447,2453,2452,2447,2429,0,0,0,0,0,0,0,0,0,1383,1388,0,0,0,0,0,0,0,0,0,0,0,1425,1446,0,0,0,0,0,0,0,0,0,0,0,0,0,0,0,1433,1372,1435,1396,0,0,0,2456,2470,0,0,0,0,0,1291,0,1307,0,0,0,2360,2341,0,0,0,0,0,0,0,0,0,0,0,0,0,0,0,0,0,0,0,0,2190,2190,2197,2195,2198,2190,2187,2180,2165,0,0,2008,2000,1991,1976,0,0,0,0,0,0,0,0,0,0,0,0,0,0,0,0,0,0,0,0,0,0,0,0
0,0,0,0,0,0,0,0,0,1398,1403,1412,1419,1424,1441,1452,1461,1463,1458,1473,1488,1512,1523,1524,1528,1536,1546,1556,1559,1570,1575,1589,1594,1601,1601,1618,1629,1640,1654,1671,1666,1675,1690,1710,0,0,0,0,0,0,0,1393,1396,1410,1435,0,1704,1729,1745,1743,1740,1737,1737,1742,1743,1745,1748,1751,1751,1751,1754,1756,0,0,0,2030,0,0,0,1443,1442,1444,1443,1445,1446,1447,1450,0,0,2274,2283,2286,2289,2288,2289,2292,2299,2305,2308,2310,2313,2318,2325,2330,2334,2335,2338,2340,2344,2345,2347,2349,2351,2355,2358,2358,2358,2359,2361,2363,2365,2365,2365,2364,2363,2363,2365,2364,2360,2357,2357,2356,2353,2352,2354,2360,2367,2376,2384,2387,2345,2294,2284,2293,2367,2427,2422,2418,2418,2417,2417,2411,2408,2401,2397,2387,2376,2371,2364,2362,2357,2360,2358,2356,2350,2347,2342,2341,2338,2337,2340,2344,2347,2347,2345,2346,2346,2347,2345,2341,2339,2337,2335,2333,2330,2329,2326,2323,2320,2316,2312,2311,2307,2304,2299,2297,2290,2285,2280,2278,2277,2273,2271,2269,2270,2269,2269,2264,2262,2261,2261,2261,2260,2262,2263,2261,2262,2264,2265,2262,2261,2263,2263,2267,2268,2270,2270,2270,2273,2275,2279,2280,2282,2282,2283,2284,2289,2294,2294,2296,2295,2294,2294,2296,2303,2306,2307,2305,2304,2305,2305,2307,2310,2315,2315,2316,2318,2323,2325,2328,2326,2328,2323,2327,2329,2335,2335,2335,2333,2329,2328,2329,2334,2334,2334,2335,2339,2337,2336,2335,2339,2342,2342,2342,2342,2345,2346,2348,2353,2357,2357,2356,2355,2357,2360,2360,2361,2361,2359,2359,2357,2363,2367,2369,2369,2368,2364,2360,2360,2363,2365,2366,2367,2369,2368,2370,2370,2373,2377,2380,2380,2378,2376,2380,2385,2393,2391,2391,2391,2396,2398,2397,2400,2400,2402,2403,2405,2407,2410,2412,2417,2418,2423,2426,2432,2433,2432,2429,2430,2429,2427,2427,2427,2429,2428,2427,2427,2424,2421,2421,2424,2427,2427,2427,2425,2425,2425,2428,2427,2424,2423,2420,2420,2418,2419,2424,2426,2425,2421,2421,2426,2431,2430,2433,2436,2441,2443,2444,2447,2451,2447,2438,0,0,0,0,0,0,0,0,0,0,0,0,0,0,0,0,0,0,0,0,0,0,0,0,0,0,0,0,0,0,0,0,0,0,0,0,0,0,0,1449,0,0,0,0,0,0,2468,2470,2484,0,0,0,0,0,1299,0,0,0,0,0,0,0,0,0,2319,0,2298,0,0,0,0,0,0,0,0,0,0,0,0,0,2180,2193,2193,2199,2200,2202,2194,2188,2181,2156,0,0,2011,2007,1997,1981,0,0,0,0,0,0,0,0,0,0,0,0,0,0,0,0,0,0,0,0,0,0,0,0
0,0,0,0,0,0,0,0,0,1407,1400,1409,1421,1448,1432,0,1467,1469,1468,1461,1473,1498,1518,1515,1517,1519,1536,1550,1553,1570,1577,1593,1595,1605,1608,1620,1624,1643,1658,1670,1663,1673,1689,1706,0,0,0,0,0,0,1381,1389,1395,1408,1433,0,1702,1723,1742,1743,1739,1736,1737,1742,1744,1748,1749,1749,1749,1750,1755,1757,0,0,0,2021,0,0,0,1445,1443,1443,1445,1444,1445,1445,1448,0,0,2270,2279,2284,2288,2290,2290,2292,2297,2303,2309,2312,2314,2319,2324,2328,2332,2335,2338,2341,2343,2345,2347,2349,2352,2356,2357,2357,2356,2357,2359,2363,2364,2365,2364,2365,2363,2364,2363,2364,2362,2362,2361,2358,2354,2353,2357,2363,2372,2382,2392,2394,2347,2294,2283,2293,2362,2430,2418,2411,2409,2411,2414,2412,2407,2401,2392,2385,2375,2372,2363,2360,2357,2361,2359,2356,2349,2345,2342,2339,2338,2338,2341,2345,2346,2346,2344,2345,2346,2345,2343,2340,2340,2339,2337,2333,2332,2330,2327,2323,2318,2313,2309,2309,2308,2307,2301,2296,2290,2286,2283,2281,2280,2274,2271,2269,2272,2269,2268,2263,2261,2260,2262,2261,2260,2262,2265,2263,2263,2263,2264,2262,2262,2262,2262,2266,2267,2270,2271,2272,2276,2276,2279,2279,2280,2282,2284,2287,2291,2295,2293,2293,2293,2293,2295,2294,2300,2303,2305,2303,2301,2303,2304,2308,2310,2314,2312,2314,2318,2321,2322,2326,2327,2327,2323,2325,2327,2330,2330,2331,2329,2329,2326,2329,2330,2332,2333,2333,2336,2335,2335,2333,2337,2341,2340,2340,2340,2342,2344,2348,2353,2355,2356,2356,2355,2355,2357,2359,2360,2359,2360,2359,2358,2359,2362,2362,2364,2365,2366,2365,2366,2368,2367,2367,2367,2369,2368,2369,2369,2373,2376,2381,2380,2380,2378,2380,2382,2388,2389,2391,2392,2394,2394,2391,2396,2400,2403,2404,2403,2407,2411,2415,2419,2418,2421,2421,2426,2425,2425,2423,2424,2423,2422,2421,2422,2425,2425,2423,2423,2423,2422,2421,2421,2424,2422,2425,2423,2424,2421,2421,2421,2423,2423,2422,2419,2419,2417,2419,2419,2420,2419,2422,2425,2427,2424,2427,2431,2438,2442,2445,2446,2452,2453,2453,0,0,0,0,0,0,0,0,0,0,0,0,0,0,0,0,0,0,0,0,0,0,0,0,0,0,0,0,0,0,0,0,0,0,0,0,0,0,0,0,0,0,0,0,0,0,0,2468,0,0,0,0,0,0,0,0,0,0,0,0,0,0,0,0,2285,2286,0,0,0,0,0,0,0,0,0,0,0,0,0,0,2169,2197,2199,2204,2204,2202,2197,2188,2180,2147,0,0,2019,2010,1998,1984,0,0,0,0,0,0,0,0,0,0,0,0,0,0,0,0,0,0,0,0,0,0,0,0
0,0,0,0,0,0,0,0,0,1401,1400,1402,1416,1428,1411,1422,1437,1467,1474,1475,1474,1497,1511,1515,1508,1513,1532,1552,1557,1564,1580,1599,1612,1615,1617,1620,1633,1646,1656,1667,1667,1681,1696,1711,0,0,0,0,0,0,1413,1391,1395,1406,1430,0,1697,1719,1737,1740,1740,1740,1739,1742,1743,1749,1751,1750,1750,1749,1752,1752,0,0,0,0,0,0,0,0,1439,1439,1442,1443,1447,1445,1449,0,0,2271,2279,2282,2285,2290,2293,2295,2299,2303,2309,2312,2316,2319,2323,2327,2332,2336,2339,2341,2344,2345,2347,2348,2352,2356,2359,2359,2357,2357,2359,2363,2365,2365,2363,2366,2366,2367,2365,2366,2367,2367,2365,2359,2354,2353,2356,2364,2371,2382,2392,2392,2343,2290,2283,2296,2355,2366,0,2368,2379,2401,2411,2414,2407,2402,2392,2386,2377,2375,2366,2364,2361,2364,2361,2357,2353,2345,2339,2337,2338,2339,2340,2343,2346,2348,2348,2347,2345,2341,2340,2341,2341,2341,2337,2336,2334,2331,2328,2324,2319,2313,2309,2308,2306,2307,2304,2301,2292,2286,2282,2280,2279,2277,2274,2269,2268,2266,2264,2259,2259,2259,2262,2259,2261,2260,2265,2263,2265,2262,2264,2263,2264,2263,2262,2264,2268,2272,2274,2274,2276,2277,2280,2282,2282,2283,2285,2288,2289,2291,2291,2292,2294,2292,2295,2292,2298,2300,2302,2303,2301,2303,2303,2307,2311,2313,2313,2314,2320,2323,2324,2323,2323,2321,2321,2322,2326,2329,2329,2330,2329,2331,2328,2329,2328,2330,2328,2328,2331,2335,2337,2334,2335,2337,2339,2338,2337,2337,2340,2345,2352,2355,2354,2355,2353,2355,2355,2358,2360,2360,2361,2360,2361,2360,2359,2356,2357,2362,2366,2370,2370,2369,2367,2366,2366,2370,2369,2369,2367,2370,2374,2378,2378,2378,2377,2378,2378,2382,2388,2392,2395,2395,2393,2391,2396,2399,2403,2405,2405,2408,2411,2417,2420,2419,2421,2422,2424,2423,2422,2423,2423,2423,2421,2420,2422,2424,2426,2423,2422,2422,2423,2421,2417,2419,2418,2421,2421,2422,2418,2417,2416,2419,2421,2420,2418,2416,2416,2417,2419,2421,2420,2421,2422,2424,2423,2427,2433,2438,2440,2442,2444,2453,2455,2461,2449,0,0,0,0,0,0,0,0,0,0,0,0,0,0,0,0,0,0,0,0,1500,0,1478,0,0,0,0,1365,0,0,0,0,0,0,0,0,0,0,0,0,0,0,0,0,0,2460,2467,0,0,0,0,0,0,0,0,0,0,0,0,0,0,2337,0,0,2269,2290,0,0,0,0,0,0,0,0,0,0,0,0,0,0,2185,2201,2208,2209,2206,2203,2193,2179,2132,0,0,2025,2006,1994,1981,0,0,0,0,0,0,0,0,0,0,0,0,0,0,0,0,0,0,0,0,0,0,0,0
0,0,0,0,0,0,0,0,0,1399,1403,1406,1414,1413,1415,1413,1435,1466,1492,1486,1480,1495,1520,1526,1516,1512,1530,1549,1555,1564,1573,1609,1623,1613,1606,1616,1637,1649,1660,1670,1675,1685,1696,1711,0,0,0,0,0,0,0,1397,1400,1408,1435,0,1698,1725,1740,1741,1743,1745,1742,1742,1743,1750,1752,1751,1752,1751,1755,1753,0,0,0,1996,0,0,0,0,1440,1442,1446,1447,1451,1449,1451,0,0,2272,2279,2284,2287,2295,2295,2295,2296,2301,2307,2312,2318,2321,2323,2326,2331,2336,2339,2342,2345,2347,2347,2349,2351,2356,2358,2359,2358,2357,2357,2361,2364,2366,2365,2370,2368,2369,2364,2365,2366,2369,2365,2361,2358,2360,2363,2370,2375,2386,2394,2391,2337,2289,2284,2299,2345,2391,2343,2348,2403,2424,2418,2416,2406,2399,2387,2383,2376,2374,2364,2363,2362,2365,2361,2358,2354,2346,2338,2334,2336,2338,2340,2342,2345,2348,2349,2347,2342,2339,2340,2342,2341,2338,2336,2335,2333,2330,2328,2325,2320,2315,2312,2308,2304,2304,2302,2297,2291,2287,2284,2282,2280,2279,2278,2273,2269,2266,2261,2259,2259,2261,2262,2260,2262,2260,2264,2264,2266,2262,2263,2264,2265,2264,2263,2265,2267,2271,2273,2274,2277,2278,2278,2281,2281,2285,2287,2290,2290,2290,2293,2295,2296,2294,2297,2296,2299,2298,2300,2303,2304,2307,2305,2308,2311,2312,2313,2314,2318,2320,2323,2322,2323,2321,2320,2319,2321,2326,2326,2327,2327,2331,2331,2332,2329,2330,2328,2327,2329,2334,2338,2336,2334,2335,2335,2336,2337,2336,2337,2341,2349,2352,2351,2353,2352,2355,2354,2358,2357,2358,2359,2357,2358,2357,2358,2359,2359,2364,2369,2372,2372,2366,2365,2365,2366,2369,2367,2368,2366,2369,2371,2376,2377,2380,2377,2378,2377,2382,2387,2390,2393,2392,2395,2395,2398,2399,2400,2401,2402,2404,2408,2415,2420,2420,2420,2421,2421,2419,2420,2422,2423,2420,2417,2416,2416,2419,2419,2418,2417,2419,2421,2421,2416,2415,2412,2416,2416,2419,2417,2416,2415,2419,2419,2416,2413,2414,2414,2415,2415,2419,2420,2420,2420,2421,2423,2428,2434,2437,2436,2440,2443,2450,2453,2456,2449,0,0,0,0,0,0,0,0,0,0,0,0,1403,0,0,0,0,0,0,0,0,0,1479,0,0,0,0,0,0,0,0,0,0,0,0,0,0,0,1433,0,0,0,0,0,0,0,2464,0,0,0,0,1345,0,0,0,0,0,2360,2369,2354,2329,0,0,0,0,0,0,0,0,0,0,0,0,0,0,0,0,0,0,0,2182,2203,2209,2209,2206,2203,2194,2180,2125,0,0,2006,2003,1994,1980,0,0,0,0,0,0,0,0,0,0,0,0,0,0,0,0,0,0,0,0,0,0,0,0
0,0,0,0,0,0,0,0,1354,1397,1408,1414,1419,1429,1416,1431,1433,1481,1503,1501,1484,1505,1533,1544,1518,1518,1533,1546,1562,1556,1581,1604,1617,1609,1608,1617,1640,1649,1667,1670,1674,1682,1698,1710,0,0,0,0,0,0,1396,1400,1400,1406,1427,0,1697,1721,1733,1732,1739,1744,1743,1741,1742,1748,1751,1752,1753,1750,1753,1753,0,0,0,1976,0,0,0,1440,1442,1444,1448,1447,1452,1451,1452,0,0,2280,2286,2288,2290,2296,2299,2299,2301,2303,2310,2314,2319,2320,2324,2327,2332,2336,2339,2341,2344,2346,2347,2348,2350,2355,2358,2359,2358,2356,2357,2359,2362,2363,2364,2368,2367,2366,2361,2359,2362,2365,2362,2362,2360,2364,2362,2365,2368,2382,2387,2386,2340,2288,2286,2305,2350,2388,2388,2396,2414,2444,2429,2415,2404,2400,2393,2386,2379,2376,2368,2365,2362,2359,2356,2353,2351,2344,2335,2331,2331,2336,2338,2342,2344,2348,2348,2345,2341,2338,2339,2340,2340,2338,2336,2334,2333,2331,2330,2328,2325,2319,2312,2307,2301,2300,2298,2296,2291,2288,2284,2282,2280,2280,2278,2274,2270,2269,2265,2262,2261,2260,2261,2261,2263,2260,2262,2264,2267,2263,2263,2262,2264,2263,2263,2264,2266,2268,2271,2274,2276,2277,2277,2281,2283,2286,2288,2289,2289,2290,2294,2297,2297,2295,2298,2299,2301,2299,2298,2300,2302,2306,2305,2306,2307,2310,2312,2314,2319,2321,2323,2320,2320,2320,2321,2321,2321,2324,2326,2326,2326,2327,2327,2327,2325,2326,2325,2325,2329,2333,2336,2334,2335,2336,2336,2334,2335,2332,2333,2337,2345,2348,2348,2350,2348,2351,2352,2355,2354,2357,2359,2357,2356,2355,2356,2359,2360,2365,2368,2368,2366,2362,2364,2365,2365,2370,2368,2371,2368,2371,2371,2371,2373,2375,2375,2376,2379,2384,2387,2389,2392,2394,2398,2398,2399,2398,2398,2399,2402,2404,2410,2415,2418,2419,2418,2417,2416,2418,2419,2420,2419,2417,2415,2416,2414,2417,2415,2415,2413,2414,2416,2415,2413,2414,2414,2414,2413,2413,2416,2415,2415,2414,2415,2413,2413,2412,2413,2414,2418,2421,2421,2419,2419,2419,2423,2428,2434,2432,2431,2433,2441,2448,2451,2454,2451,0,0,0,0,0,0,0,0,0,0,0,1372,0,0,0,0,0,0,0,0,0,1511,1472,1493,0,0,0,0,0,0,0,0,0,0,0,0,0,0,1431,0,0,0,0,0,0,0,2456,2465,0,0,0,0,0,0,0,0,0,2361,2344,2350,2349,0,0,0,0,0,0,2281,0,0,0,0,0,0,0,0,0,0,0,0,2193,2207,2208,2206,2206,2201,2192,2176,2141,0,0,2001,1999,1993,1975,0,0,0,0,0,0,0,0,0,0,0,0,0,0,0,0,0,0,0,0,0,0,0,0
0,0,0,0,0,0,0,0,0,1387,1398,1407,1424,1437,1432,1431,1453,1477,1497,1483,1477,1495,1518,1522,1527,1529,1536,1558,1556,1575,1585,1598,1599,1604,1610,1618,1632,1650,1660,1669,1675,1682,1697,1710,0,0,0,0,0,0,1406,1397,1396,1404,1431,0,1689,1717,1734,1732,1737,1741,1745,1743,1743,1747,1752,1752,1754,1752,1756,1758,0,0,0,1943,0,0,0,1446,1446,1446,1450,1448,1450,1449,1451,0,0,2277,2283,2288,2293,2296,2299,2301,2302,2304,2309,2315,2319,2320,2323,2327,2332,2334,2337,2340,2343,2345,2347,2349,2351,2354,2356,2358,2358,2358,2358,2359,2360,2363,2363,2366,2365,2363,2357,2356,2360,2365,2361,2360,2361,2368,2366,2365,2367,2380,2390,2390,2345,2289,2287,2309,2351,2384,2382,2391,2400,0,0,2377,2392,2398,2396,2386,2376,2372,2369,2366,2362,2356,2352,2351,2347,2343,2336,2333,2330,2334,2338,2343,2345,2349,2347,2345,2343,2340,2339,2338,2341,2340,2337,2332,2332,2330,2331,2330,2327,2318,2311,2307,2301,2299,2295,2295,2291,2289,2287,2284,2282,2279,2277,2276,2275,2274,2270,2267,2264,2264,2266,2267,2267,2263,2262,2264,2265,2262,2260,2261,2262,2262,2265,2267,2268,2268,2269,2271,2274,2274,2276,2278,2281,2285,2289,2291,2293,2294,2297,2299,2297,2295,2296,2300,2301,2299,2298,2299,2303,2305,2307,2307,2307,2308,2311,2313,2317,2318,2318,2318,2320,2322,2322,2323,2322,2323,2323,2324,2323,2326,2327,2327,2322,2322,2322,2325,2329,2331,2332,2329,2332,2333,2334,2332,2333,2332,2334,2337,2340,2343,2344,2347,2347,2349,2350,2352,2349,2353,2356,2356,2352,2351,2355,2359,2360,2363,2365,2364,2363,2363,2366,2365,2364,2367,2368,2370,2367,2368,2367,2371,2373,2377,2378,2381,2383,2386,2387,2387,2389,2390,2394,2394,2395,2395,2398,2401,2404,2407,2411,2413,2417,2420,2419,2415,2413,2415,2418,2415,2413,2414,2415,2417,2412,2414,2411,2410,2409,2409,2411,2411,2412,2412,2414,2411,2410,2410,2414,2414,2415,2413,2412,2411,2411,2411,2411,2412,2415,2417,2417,2418,2421,2422,2423,2426,2430,2431,2430,2432,2437,2444,2449,2448,2443,0,0,0,0,0,0,0,0,0,0,0,0,0,0,0,0,0,0,0,1540,0,0,0,0,0,1521,1513,0,0,0,0,0,0,0,0,0,0,1439,0,0,0,0,0,0,0,2445,2447,2444,0,0,0,0,0,0,0,0,0,0,0,2334,2345,0,2320,0,2340,0,0,0,0,0,0,0,0,0,0,0,0,0,0,0,2206,2201,2202,2201,2204,2200,2190,2173,2122,0,0,2001,1996,1990,0,0,0,0,0,0,0,0,0,0,0,0,0,0,0,0,0,0,0,0,0,0,0,0,0
0,0,0,0,0,0,0,0,0,1385,1396,1398,1410,1425,1424,1428,1447,1477,1480,1492,1481,1485,1496,1512,1529,1538,1550,1547,1567,1575,1588,1589,1591,1604,1616,1623,1632,1639,1653,1661,1677,1693,1704,1714,0,0,0,0,0,0,1398,1392,1390,1401,1433,0,1689,1713,1732,1731,1731,1733,1736,1736,1739,1744,1751,1751,1751,1749,1754,1760,0,0,0,1930,1903,0,0,1440,1443,1445,1448,1446,1448,1448,1451,0,0,2282,2286,2287,2291,2292,2298,2300,2304,2306,2311,2318,2321,2320,2322,2325,2330,2334,2336,2340,2344,2346,2347,2348,2350,2353,2356,2357,2358,2358,2359,2359,2359,2361,2361,2361,2360,2359,2358,2355,2360,2362,2363,2362,2361,2361,2357,2358,2365,2383,2391,2393,2344,2288,2287,2307,2348,2381,2380,2385,2391,2374,0,2399,2398,2401,2396,2387,2377,2374,2373,2368,2362,2350,2348,2348,2347,2341,2336,2333,2332,2334,2338,2343,2347,2351,2349,2346,2346,2344,2341,2340,2343,2344,2340,2335,2332,2330,2329,2327,2324,2317,2312,2306,2303,2298,2296,2297,2298,2296,2290,2283,2279,2278,2277,2277,2274,2274,2273,2270,2266,2264,2266,2266,2267,2264,2263,2264,2264,2262,2260,2261,2262,2261,2266,2268,2270,2268,2270,2271,2273,2273,2279,2281,2283,2284,2290,2292,2294,2293,2295,2297,2297,2296,2294,2296,2296,2297,2298,2301,2304,2306,2309,2309,2310,2310,2314,2314,2317,2317,2317,2317,2319,2323,2323,2324,2322,2324,2324,2325,2323,2324,2323,2323,2318,2318,2319,2323,2328,2329,2327,2325,2328,2331,2333,2333,2334,2333,2334,2336,2338,2340,2343,2346,2345,2347,2348,2349,2348,2351,2355,2354,2353,2351,2352,2354,2357,2361,2364,2364,2363,2362,2364,2363,2361,2362,2365,2367,2366,2366,2366,2366,2368,2372,2377,2379,2380,2380,2382,2384,2389,2391,2393,2392,2394,2395,2399,2402,2405,2409,2413,2416,2417,2418,2416,2412,2412,2413,2414,2410,2409,2411,2412,2415,2414,2415,2413,2409,2407,2407,2411,2411,2412,2412,2414,2411,2410,2408,2411,2410,2411,2409,2409,2410,2412,2411,2408,2409,2414,2416,2416,2416,2419,2419,2420,2424,2429,2431,2432,2432,2437,2444,2451,2449,2442,0,0,0,0,0,0,1375,1422,0,0,0,0,0,0,0,0,0,0,0,0,0,1515,0,0,0,0,0,0,0,0,0,0,0,0,0,0,0,0,0,0,0,0,0,0,0,2446,2441,0,0,0,0,0,0,0,0,1261,0,2375,2344,2366,2312,2311,0,2314,2340,2342,0,0,0,0,0,0,0,0,0,0,0,0,0,0,2201,2198,2190,2189,2196,2197,2187,2166,0,0,0,2002,1996,1983,0,0,0,0,0,0,0,0,0,0,0,0,0,0,0,0,0,0,0,0,0,0,0,0,0
0,0,0,0,0,0,0,0,1366,1386,1390,1392,1401,1414,1422,1429,1441,1461,1484,1489,1494,1489,1493,1521,1534,1544,1547,1559,1562,1576,1582,1588,1591,1605,1617,1633,1636,1645,1652,1667,1677,1695,1704,1706,0,0,0,0,0,0,1396,1394,1394,1404,1430,0,1699,1717,1728,1729,1730,1730,1731,1731,1739,1747,1753,1751,1750,1749,1755,1762,1775,0,0,0,0,0,0,1440,1441,1443,1447,1447,1450,1448,1451,0,0,2277,2284,2286,2289,2288,2292,2295,2299,2303,2309,2315,2319,2320,2321,2325,2331,2335,2337,2340,2344,2345,2346,2348,2352,2354,2355,2356,2358,2359,2358,2359,2361,2363,2364,2362,2362,2360,2360,2358,2360,2362,2363,2362,2359,2356,2353,2356,2364,2382,2390,2391,2347,2291,2288,2305,2344,2377,2381,2386,2393,2402,2414,2419,2412,2401,2394,2385,2378,2375,2374,2369,2363,2354,2350,2350,2345,2340,2338,2336,2335,2335,2339,2342,2345,2350,2352,2350,2350,2348,2344,2341,2341,2344,2341,2337,2336,2333,2331,2326,2323,2317,2313,2307,2306,2301,2299,2297,2297,2295,2291,2284,2281,2280,2280,2280,2276,2276,2273,2272,2271,2269,2271,2269,2270,2268,2266,2266,2264,2265,2264,2266,2265,2264,2269,2272,2275,2273,2274,2274,2274,2275,2280,2282,2286,2286,2291,2292,2295,2295,2296,2299,2300,2298,2293,2294,2294,2297,2299,2303,2306,2309,2311,2311,2312,2311,2314,2314,2316,2315,2318,2319,2320,2322,2321,2323,2323,2324,2322,2322,2320,2321,2323,2325,2324,2321,2321,2324,2328,2328,2325,2324,2325,2329,2331,2333,2336,2336,2337,2333,2332,2334,2343,2347,2347,2347,2346,2347,2345,2346,2349,2351,2352,2352,2354,2354,2356,2357,2359,2361,2363,2363,2363,2361,2359,2358,2360,2364,2364,2363,2365,2367,2369,2372,2374,2377,2378,2378,2380,2383,2387,2388,2392,2394,2396,2397,2400,2405,2409,2412,2415,2417,2418,2416,2414,2411,2411,2410,2409,2407,2408,2408,2410,2413,2414,2414,2410,2407,2404,2406,2410,2411,2411,2409,2409,2407,2408,2406,2407,2409,2411,2412,2409,2409,2409,2409,2406,2409,2411,2413,2412,2414,2418,2418,2420,2424,2428,2432,2431,2434,2435,2440,2447,2451,2446,0,0,0,0,0,0,0,0,0,0,0,0,0,0,0,0,0,0,0,0,0,0,0,0,0,0,0,0,0,0,0,0,0,0,0,0,0,1467,0,0,0,0,0,0,0,2452,2474,0,0,0,0,0,0,0,0,0,0,0,0,2329,0,0,2301,2300,0,0,0,0,0,2274,0,0,0,0,0,0,0,0,0,0,2198,2197,2190,2185,2192,2194,2186,2167,0,0,0,2014,2000,1985,0,0,0,0,0,0,0,0,0,0,0,0,0,0,0,0,0,0,0,0,0,0,0,0,0
0,0,0,0,0,0,0,0,1375,1396,1400,1403,1416,1424,1423,1431,1446,1458,1482,1495,1495,1493,1513,1522,1538,1541,1544,1548,1568,1569,1574,1579,1595,1607,1621,1628,1637,1644,1652,1658,1674,1686,1699,1711,1726,0,0,0,0,0,1403,1397,1399,1414,1441,0,1707,1721,1729,1731,1734,1736,1732,1731,1736,1746,1750,1749,1748,1748,1754,1763,1777,0,0,0,0,0,0,1440,1440,1441,1446,1448,1453,1453,1454,0,0,2278,2281,2281,2281,2284,2290,2294,2300,2304,2310,2313,2316,2319,2322,2325,2331,2335,2337,2340,2343,2345,2347,2349,2353,2353,2355,2355,2358,2359,2361,2361,2363,2363,2364,2362,2362,2359,2361,2359,2361,2362,2364,2363,2359,2354,2352,2356,2365,2384,2386,2387,2339,2294,2291,2310,2348,2379,2383,2387,2391,2398,2410,2439,2426,2404,2395,2391,2385,2377,2370,2366,2360,2354,2349,2348,2343,2337,2334,2333,2335,2337,2341,2342,2343,2347,2350,2349,2348,2347,2346,2344,2342,2341,2340,2338,2335,2331,2328,2325,2323,2318,2316,2308,2307,2302,2298,2296,2295,2295,2290,2285,2282,2282,2281,2282,2278,2279,2276,2272,2272,2271,2270,2266,2266,2266,2267,2267,2265,2265,2266,2268,2270,2268,2271,2273,2275,2273,2275,2277,2278,2277,2280,2283,2290,2289,2292,2292,2295,2294,2297,2298,2298,2297,2296,2297,2296,2298,2300,2305,2306,2311,2312,2313,2312,2313,2315,2314,2317,2318,2321,2321,2321,2320,2321,2320,2321,2321,2321,2321,2319,2320,2320,2324,2327,2325,2324,2323,2327,2327,2325,2324,2325,2328,2330,2332,2335,2336,2337,2332,2331,2333,2340,2345,2345,2346,2346,2346,2344,2344,2347,2350,2352,2353,2354,2355,2359,2360,2361,2360,2359,2357,2357,2358,2358,2359,2361,2365,2365,2364,2364,2365,2367,2369,2370,2373,2374,2375,2379,2381,2385,2387,2393,2397,2397,2397,2401,2405,2408,2411,2414,2417,2416,2411,2407,2408,2409,2409,2407,2405,2406,2406,2407,2410,2411,2412,2408,2408,2404,2406,2407,2407,2406,2406,2405,2405,2404,2404,2404,2406,2407,2409,2409,2410,2411,2409,2408,2408,2408,2410,2410,2412,2415,2416,2419,2423,2425,2428,2427,2430,2434,2440,2447,2454,2454,2433,0,0,0,0,0,0,0,0,0,0,0,0,0,0,0,0,1435,0,0,0,1507,0,0,0,0,0,0,0,0,0,0,0,0,0,0,0,0,0,0,0,0,0,0,0,2461,2481,0,0,0,0,0,0,0,0,0,0,0,0,2321,0,2321,2329,2311,2308,0,0,2282,2282,2299,2272,0,2268,0,0,0,0,0,0,0,2199,2201,2198,2195,2194,2193,2183,2164,0,0,0,2008,2004,1991,0,0,0,0,0,0,0,0,0,0,0,0,0,0,0,0,0,0,0,0,0,0,0,0,0
0,0,0,0,0,0,0,0,0,1404,1407,1417,1424,1429,1426,1446,1451,1455,1488,1488,1492,1501,1521,1526,1541,1543,1541,1549,1567,1573,1571,1581,1594,1614,1618,1628,1636,1647,1652,1659,1672,1683,1697,1721,1734,0,0,0,0,0,1414,1406,1407,1420,1452,0,1706,1729,1737,1737,1736,1738,1739,1739,1741,1746,1749,1749,1747,1750,1754,1762,0,0,0,1935,0,0,0,0,1443,1442,1445,1447,1451,1451,1456,0,0,2271,2278,2279,2282,2285,2293,2298,2302,2305,2310,2312,2315,2319,2323,2326,2331,2336,2337,2340,2343,2345,2348,2351,2355,2356,2357,2357,2358,2359,2361,2362,2364,2364,2367,2364,2363,2358,2358,2360,2363,2366,2362,2360,2358,2358,2355,2358,2365,2379,2381,2382,2340,2294,2294,2318,2355,2378,2381,2383,2387,2391,2417,2451,2455,2414,2400,2392,2386,2376,2366,2361,2358,2357,2352,2349,2340,2337,2333,2332,2334,2336,2341,2341,2342,2343,2349,2350,2350,2346,2344,2343,2341,2343,2341,2339,2335,2331,2329,2326,2324,2317,2314,2309,2310,2307,2304,2299,2294,2291,2288,2286,2284,2283,2282,2283,2282,2283,2280,2276,2276,2275,2274,2270,2268,2268,2268,2269,2267,2267,2270,2273,2274,2272,2273,2274,2277,2278,2280,2280,2280,2279,2280,2282,2288,2291,2290,2290,2292,2296,2298,2298,2296,2295,2296,2298,2298,2299,2300,2302,2305,2310,2310,2312,2311,2312,2312,2313,2316,2317,2321,2320,2320,2317,2319,2320,2322,2320,2319,2317,2317,2318,2322,2325,2327,2324,2324,2325,2327,2326,2326,2327,2328,2329,2330,2329,2330,2332,2335,2332,2331,2332,2340,2344,2345,2343,2346,2347,2345,2343,2344,2350,2351,2354,2356,2357,2358,2359,2359,2356,2356,2356,2356,2358,2359,2360,2361,2365,2365,2364,2366,2367,2370,2369,2370,2372,2377,2378,2381,2382,2385,2386,2392,2396,2397,2396,2401,2406,2408,2411,2413,2415,2415,2413,2410,2408,2407,2406,2405,2404,2407,2406,2408,2409,2408,2407,2404,2405,2402,2401,2401,2403,2403,2405,2404,2405,2404,2404,2403,2404,2404,2406,2407,2409,2408,2410,2410,2411,2410,2408,2410,2413,2417,2420,2422,2423,2424,2426,2426,2428,2434,2439,2447,2451,2452,2441,0,0,0,0,0,0,0,0,0,0,0,0,0,0,0,0,0,0,0,0,0,0,0,0,0,0,0,0,0,0,0,0,0,0,0,0,0,0,0,0,0,0,0,0,2473,2475,0,0,0,0,0,0,0,2419,0,0,0,2371,2365,2333,2337,2341,2325,2325,2289,0,0,2290,2314,2313,2282,0,0,0,0,0,0,0,0,2196,2203,2210,2204,2200,2192,2184,2165,0,0,0,2008,2003,1997,1968,0,0,0,0,0,0,0,0,0,0,0,0,0,0,0,0,0,0,0,0,0,0,0,0
0,0,0,0,0,0,0,0,1385,1404,1409,1417,1421,1424,1422,1438,1442,1446,1471,1486,1490,1490,1514,1533,1540,1545,1542,1547,1563,1573,1576,1584,1598,1611,1613,1620,1631,1642,1643,1652,1665,1678,1700,1718,1740,1742,1721,1710,0,0,1408,1408,1408,1421,1453,0,1700,1738,1745,1745,1739,1741,1738,1738,1738,1743,1747,1748,1749,1752,1755,1758,0,0,0,1901,1877,0,0,1452,1450,1447,1446,1447,1448,1453,1460,0,0,2267,2272,2275,2280,2287,2294,2301,2302,2305,2308,2312,2317,2321,2325,2327,2332,2335,2338,2342,2344,2346,2348,2351,2354,2355,2357,2358,2359,2359,2361,2361,2365,2363,2363,2361,2362,2360,2360,2360,2364,2365,2361,2359,2358,2359,2357,2362,2372,2382,2382,2378,2337,2290,2296,2325,2361,2381,2383,2384,2385,2391,2417,2448,2461,2432,2407,2390,2385,2375,2363,2357,2355,2356,2354,2349,2344,2338,2332,2329,2331,2336,2343,2344,2346,2345,2350,2350,2350,2346,2343,2343,2343,2342,2340,2337,2336,2331,2329,2324,2322,2316,2314,2311,2311,2310,2307,2305,2300,2295,2290,2287,2283,2282,2283,2284,2284,2284,2282,2277,2274,2274,2274,2271,2267,2267,2265,2267,2266,2267,2271,2274,2275,2277,2277,2278,2276,2277,2278,2277,2277,2277,2279,2280,2284,2287,2288,2292,2293,2295,2296,2297,2296,2294,2295,2298,2301,2300,2300,2301,2304,2306,2306,2310,2311,2314,2313,2314,2315,2316,2319,2318,2321,2318,2320,2318,2319,2318,2317,2316,2317,2318,2320,2321,2320,2321,2321,2322,2324,2323,2326,2326,2327,2328,2329,2328,2327,2329,2334,2335,2335,2335,2339,2340,2342,2342,2347,2348,2347,2346,2347,2351,2352,2355,2356,2357,2357,2358,2359,2355,2355,2354,2357,2358,2361,2361,2360,2362,2364,2363,2364,2364,2370,2371,2374,2374,2376,2378,2381,2383,2384,2386,2392,2396,2396,2397,2401,2405,2405,2406,2407,2410,2410,2411,2410,2409,2409,2408,2407,2404,2405,2406,2407,2405,2403,2401,2402,2403,2403,2401,2401,2402,2405,2405,2404,2404,2405,2405,2404,2402,2401,2402,2404,2406,2407,2409,2410,2409,2410,2409,2413,2414,2418,2422,2424,2422,2421,2422,2426,2428,2435,2437,2444,2446,2451,2447,0,0,0,0,0,0,0,0,0,0,0,0,0,0,0,0,0,0,0,0,0,0,0,0,0,0,0,0,0,2805,0,0,0,0,0,0,0,0,0,0,0,0,0,0,2465,2466,0,0,0,0,0,0,0,0,0,0,2384,2348,2371,2357,2347,2346,2323,2297,0,0,2249,2281,2309,2289,2281,0,0,0,0,0,0,0,0,2205,2206,2206,2203,2200,2196,2186,2164,0,0,0,2009,2000,1994,1969,0,0,0,0,0,0,0,0,0,0,0,0,0,0,0,0,0,0,0,0,0,0,0,0
0,0,0,0,0,0,0,0,1372,1403,1406,1413,1411,1413,1422,1442,1441,1443,1471,1483,1487,1480,1493,1519,1551,1551,1548,1552,1558,1575,1579,1591,1596,1604,1610,1621,1627,1635,1640,1654,1669,1685,1696,1714,1733,1734,1730,0,0,0,1408,1407,1405,1417,1451,0,1693,1729,1742,1741,1735,1735,1736,1739,1742,1745,1749,1752,1753,1753,1753,1757,0,0,0,1891,1871,0,0,1458,1456,1450,1450,1449,1450,1452,1460,0,0,2267,2273,2277,2283,2287,2296,2302,2304,2304,2309,2314,2320,2322,2326,2329,2332,2336,2338,2345,2347,2349,2350,2352,2355,2356,2357,2358,2359,2360,2360,2361,2364,2364,2362,2360,2360,2360,2359,2362,2365,2363,2359,2358,2357,2357,2357,2367,2374,2383,2383,2379,2335,2291,2298,2326,2361,2378,2383,2385,2387,2391,2412,2436,2426,0,2395,2393,2382,2378,2368,2359,2355,2354,2350,2341,2335,2333,2332,2329,2331,2335,2341,2342,2345,2346,2351,2353,2354,2350,2345,2344,2342,2341,2340,2338,2337,2333,2331,2324,2319,2314,2312,2313,2313,2312,2310,2308,2304,2299,2293,2289,2286,2285,2286,2284,2283,2283,2282,2278,2274,2273,2273,2273,2271,2270,2267,2269,2269,2272,2274,2278,2278,2280,2279,2281,2279,2280,2279,2278,2278,2280,2282,2281,2284,2289,2290,2292,2292,2295,2294,2297,2298,2297,2296,2297,2301,2304,2304,2304,2305,2306,2306,2308,2310,2313,2313,2314,2314,2315,2318,2320,2322,2318,2317,2316,2318,2319,2320,2319,2319,2319,2319,2318,2319,2319,2322,2321,2324,2322,2324,2325,2325,2328,2328,2330,2326,2326,2329,2332,2335,2337,2339,2338,2339,2339,2344,2346,2349,2349,2350,2350,2349,2350,2353,2354,2353,2352,2356,2356,2358,2356,2359,2359,2363,2361,2359,2357,2359,2360,2364,2365,2372,2372,2373,2371,2374,2378,2382,2383,2383,2385,2390,2395,2396,2397,2399,2403,2404,2405,2406,2407,2408,2410,2411,2409,2407,2405,2404,2403,2406,2406,2407,2402,2399,2396,2397,2399,2399,2398,2401,2406,2408,2406,2404,2402,2404,2402,2402,2401,2403,2405,2405,2407,2406,2409,2410,2410,2410,2409,2413,2415,2418,2420,2420,2419,2421,2424,2429,2427,2428,2429,2437,2440,2447,2448,2459,0,0,0,0,0,0,0,0,0,0,0,0,0,0,0,0,0,0,0,0,0,0,0,0,0,0,0,0,0,0,0,0,2739,0,0,0,0,0,0,0,0,0,2464,2456,2454,0,0,0,0,0,0,0,0,0,0,0,0,2341,0,2336,2360,2310,2296,0,0,2268,2282,2277,2268,0,0,0,0,0,0,0,0,0,2206,2207,2203,2199,2199,2196,2188,2167,0,0,0,2008,1996,1989,0,0,0,0,0,0,0,0,0,0,0,0,0,0,0,0,0,0,0,0,0,0,0,0,0
0,0,0,0,0,0,0,0,0,1389,1398,1402,1409,1418,1428,1446,1446,1448,1480,1493,1480,1477,1490,1516,1541,1543,1540,1552,1561,1577,1586,1586,1590,1600,1613,1622,1629,1638,1643,1658,1669,1685,1696,1710,1713,1741,1736,1741,0,0,1424,1396,1396,1411,1451,0,1692,1725,1738,1742,1739,1739,1735,1735,1740,1747,1750,1752,1753,1753,1753,1756,1765,0,0,0,1881,0,0,1462,1459,1452,1455,1453,1459,1460,1463,0,0,2268,2273,2278,2282,2286,2293,2301,2303,2305,2309,2314,2319,2323,2327,2330,2332,2336,2338,2343,2344,2347,2348,2351,2352,2355,2357,2358,2359,2360,2360,2360,2361,2360,2358,2357,2359,2361,2362,2366,2366,2363,2360,2358,2356,2355,2358,2368,2375,2382,2385,2377,2331,2289,2297,2326,2363,2379,2382,2384,2388,2392,2403,2409,2428,2427,2441,2424,2394,2381,2370,2363,2356,2352,2339,2322,2317,2321,2327,2329,2330,2336,2339,2344,2346,2351,2354,2355,2353,2350,2347,2345,2343,2340,2339,2336,2337,2334,2331,2324,2320,2317,2314,2314,2314,2314,2309,2306,2302,2299,2295,2293,2290,2288,2288,2286,2287,2285,2285,2279,2276,2275,2274,2274,2273,2272,2270,2272,2273,2274,2273,2277,2277,2279,2281,2284,2283,2281,2280,2278,2278,2278,2280,2279,2284,2289,2292,2295,2294,2296,2293,2296,2301,2301,2300,2299,2303,2305,2306,2305,2306,2306,2307,2309,2311,2312,2312,2314,2315,2315,2316,2318,2319,2319,2318,2317,2316,2318,2321,2323,2323,2321,2317,2317,2319,2321,2322,2320,2323,2321,2322,2322,2322,2326,2327,2328,2325,2326,2326,2329,2332,2333,2333,2334,2337,2338,2341,2342,2346,2348,2350,2349,2347,2347,2351,2353,2353,2351,2353,2355,2357,2357,2360,2360,2363,2360,2357,2354,2357,2360,2363,2364,2370,2372,2373,2370,2371,2374,2378,2378,2381,2386,2392,2395,2396,2396,2399,2401,2403,2402,2403,2402,2405,2407,2409,2407,2406,2404,2404,2402,2402,2402,2403,2399,2395,2392,2395,2399,2398,2400,2401,2404,2405,2403,2402,2400,2400,2399,2400,2401,2403,2405,2406,2407,2407,2408,2410,2410,2412,2411,2414,2414,2416,2417,2419,2418,2420,2421,2426,2428,2431,2431,2437,2441,2457,2463,2474,0,0,0,0,0,0,0,0,0,0,0,0,0,0,0,0,0,0,0,0,0,0,0,0,0,0,0,0,0,0,0,0,2740,0,0,0,0,0,0,0,0,0,0,2438,2428,0,0,0,0,0,0,0,0,0,0,2374,2349,2327,2319,0,2316,2312,2304,0,2258,2263,0,0,0,0,0,0,0,0,0,0,0,0,2210,2211,2201,2201,2199,2197,2186,2165,0,0,0,1999,1995,1983,0,0,0,0,0,0,0,0,0,0,0,0,0,0,0,0,0,0,0,0,0,0,0,0,0
0,0,0,0,0,0,0,0,0,1393,1396,1401,1406,1423,1430,1434,1429,1448,1486,1482,1492,1494,1504,1520,1540,1545,1544,1550,1559,1576,1585,1582,1585,1603,1622,1628,1636,1642,1652,1662,1678,1694,1710,1714,1721,1732,1742,1743,0,0,1407,1397,1392,1410,1453,0,1692,1719,1734,1737,1736,1736,1734,1735,1745,1751,1754,1754,1754,1754,1753,1757,0,0,0,1903,1874,0,0,1464,1464,1459,1459,1457,1461,1460,1459,0,0,2272,2275,2280,2285,2289,2295,2297,2300,2303,2309,2315,2319,2322,2324,2327,2330,2335,2337,2343,2345,2348,2348,2350,2351,2355,2356,2359,2358,2360,2360,2360,2360,2360,2358,2357,2354,2356,2361,2371,2375,2371,2366,2361,2358,2357,2356,2362,2368,2378,2384,2374,2328,2287,2297,2324,2362,2376,2380,2381,2386,2393,2402,2413,2412,2429,2447,2435,2402,2380,2370,2365,2357,2347,2322,2304,2299,2308,2321,2328,2330,2334,2337,2342,2345,2350,2353,2355,2354,2352,2349,2348,2346,2343,2343,2341,2336,2331,2328,2328,2324,2321,2317,2317,2316,2315,2309,2307,2303,2301,2297,2294,2292,2289,2289,2286,2287,2285,2285,2280,2280,2277,2276,2276,2276,2275,2274,2276,2276,2275,2274,2276,2279,2279,2282,2284,2288,2286,2285,2283,2285,2284,2284,2285,2289,2295,2296,2297,2296,2299,2297,2298,2302,2303,2300,2299,2301,2304,2306,2306,2309,2309,2312,2312,2313,2313,2313,2314,2315,2315,2317,2317,2318,2318,2318,2320,2319,2321,2323,2326,2324,2321,2317,2319,2323,2323,2322,2318,2319,2319,2320,2321,2321,2325,2326,2328,2325,2324,2323,2325,2330,2334,2335,2335,2337,2338,2339,2341,2343,2346,2348,2347,2346,2346,2348,2349,2349,2350,2352,2354,2356,2357,2358,2358,2360,2359,2359,2356,2357,2359,2362,2366,2369,2370,2369,2368,2370,2373,2378,2378,2381,2386,2392,2396,2396,2397,2397,2397,2399,2400,2402,2402,2404,2405,2406,2405,2405,2403,2403,2401,2401,2400,2401,2397,2394,2392,2395,2397,2395,2398,2397,2399,2398,2401,2401,2399,2397,2398,2402,2404,2405,2406,2407,2407,2405,2405,2407,2410,2411,2411,2411,2414,2414,2415,2417,2420,2422,2424,2425,2429,2432,2435,2437,2440,2451,2457,2465,0,0,0,0,0,0,0,0,0,0,0,0,0,0,0,0,0,0,0,0,0,0,0,0,0,0,0,0,0,0,0,0,0,0,0,0,1431,0,1388,0,0,0,2471,2441,2435,0,0,0,0,0,0,0,0,0,0,2371,2362,2339,2332,2321,2321,2298,2298,0,0,0,0,0,0,0,0,0,0,0,0,0,0,2213,2217,2214,2210,2205,2202,2196,2188,2170,0,0,0,2013,2000,1986,0,0,0,0,0,0,0,0,0,0,0,0,0,0,0,0,0,0,0,0,0,0,0,0,0
0,0,0,0,0,0,0,0,0,1387,1394,1402,1408,1439,1440,1442,1422,1465,1461,1463,1509,1513,1516,1528,1540,1539,1541,1548,1563,1582,1583,1582,1595,1609,1625,1634,1643,1647,1654,1663,1678,1693,1707,1707,1709,1712,1700,1695,0,0,1379,1396,1397,1418,0,0,1695,1721,1732,1736,1739,1740,1737,1736,1743,1750,1752,1752,1752,1752,1754,1757,1766,0,0,1892,0,0,0,1465,1466,1462,1459,1456,1460,1462,1462,0,0,2272,2277,2284,2289,2295,2295,2299,2300,2305,2308,2315,2320,2322,2323,2326,2330,2334,2337,2341,2343,2346,2347,2350,2351,2355,2356,2357,2357,2357,2358,2360,2360,2360,2360,2361,2361,2360,2365,2372,2376,2374,2369,2366,2361,2358,2356,2358,2366,2373,2378,2365,2319,2284,2295,2324,2362,2374,2379,2381,2388,2395,2405,2418,0,0,0,0,0,2379,2366,2360,2356,2334,2306,2291,2288,2298,2314,2325,2327,2331,2336,2343,2347,2350,2352,2355,2355,2355,2352,2352,2351,2350,2347,2343,2337,2334,2329,2330,2328,2327,2321,2318,2316,2317,2312,2310,2307,2307,2301,2297,2293,2290,2289,2288,2292,2290,2289,2286,2286,2283,2282,2279,2279,2276,2277,2276,2279,2278,2278,2277,2279,2281,2285,2285,2288,2288,2288,2285,2285,2287,2286,2286,2288,2293,2295,2297,2297,2297,2297,2300,2304,2303,2301,2302,2304,2304,2303,2304,2308,2309,2309,2310,2312,2314,2313,2314,2315,2313,2315,2316,2319,2320,2322,2322,2319,2318,2319,2323,2322,2319,2318,2320,2323,2322,2321,2316,2317,2318,2323,2324,2324,2326,2324,2324,2322,2324,2322,2323,2326,2330,2333,2333,2335,2336,2339,2342,2342,2343,2345,2347,2349,2349,2350,2351,2351,2352,2352,2354,2357,2359,2359,2357,2359,2360,2361,2360,2362,2363,2365,2367,2366,2366,2366,2369,2372,2374,2378,2378,2382,2387,2392,2394,2395,2395,2395,2396,2396,2396,2397,2399,2403,2404,2403,2401,2401,2402,2403,2401,2399,2397,2397,2396,2395,2396,2398,2398,2395,2396,2395,2395,2395,2397,2399,2400,2398,2398,2399,2401,2402,2403,2402,2403,2402,2404,2406,2411,2412,2413,2412,2413,2414,2414,2416,2420,2422,2421,2425,2430,2435,2435,2436,2440,2450,2457,2461,0,0,0,0,0,0,0,0,0,0,0,0,0,0,0,0,0,0,0,0,0,0,0,0,0,0,0,0,0,0,0,0,0,0,0,0,1417,1413,0,0,0,0,0,2462,2466,0,0,1339,0,1303,0,0,0,0,0,2377,2353,2377,2325,2318,2277,0,0,0,0,0,0,0,0,0,0,0,0,0,0,0,0,0,2209,2212,2207,2206,2202,2195,2186,2167,0,0,0,2013,1998,1979,0,0,0,0,0,0,0,0,0,0,0,0,0,0,0,0,0,0,0,0,0,0,0,0,0
0,1066,0,0,0,0,0,0,0,1389,1397,1408,1425,1445,1454,1434,1453,1440,1442,1456,1508,1516,1524,1537,1554,1548,1550,1558,1583,1576,1589,1594,1605,1616,1631,1637,1642,1645,1653,1662,1671,1682,1676,1682,1688,1685,1675,1664,0,0,1393,1401,1402,1425,0,0,1701,1721,1732,1736,1744,1743,1740,1738,1745,1750,1753,1753,1753,1750,1752,1757,0,0,0,1884,0,0,0,1465,1463,1460,1457,1458,1462,1464,1461,0,0,2271,2276,2285,2288,2295,2293,2296,2300,2306,2308,2314,2319,2321,2323,2326,2331,2334,2337,2340,2342,2345,2345,2348,2350,2355,2356,2356,2357,2358,2358,2361,2362,2361,2362,2363,2364,2358,2361,2367,2374,2374,2369,2365,2360,2358,2354,2357,2364,2369,2374,2361,2318,2284,2296,2328,2359,2370,2376,2381,2387,2395,2410,2426,2434,2426,2434,2425,2406,2372,2364,2355,2341,2314,2291,2282,2284,2295,2310,2319,2323,2327,2334,2341,2346,2352,2353,2357,2360,2362,2356,2352,2351,2350,2349,2347,2342,2339,2332,2333,2329,2330,2323,2320,2315,2315,2313,2314,2312,2309,2303,2298,2295,2292,2292,2290,2292,2289,2291,2287,2287,2284,2283,2281,2280,2277,2279,2278,2281,2282,2283,2281,2282,2284,2288,2285,2287,2287,2288,2288,2288,2291,2290,2291,2292,2295,2295,2294,2295,2296,2300,2302,2303,2302,2300,2303,2304,2306,2306,2306,2306,2307,2308,2311,2313,2314,2313,2314,2316,2315,2317,2319,2321,2319,2320,2320,2319,2319,2320,2322,2321,2319,2319,2319,2322,2321,2319,2315,2317,2319,2323,2322,2322,2322,2322,2323,2321,2324,2324,2326,2329,2333,2337,2336,2334,2333,2337,2342,2343,2344,2345,2348,2349,2349,2349,2348,2349,2351,2353,2356,2358,2360,2359,2359,2361,2363,2365,2365,2365,2365,2365,2367,2365,2367,2368,2372,2373,2376,2376,2379,2381,2385,2390,2393,2393,2393,2392,2395,2394,2397,2399,2401,2400,2401,2400,2400,2399,2401,2401,2401,2401,2402,2399,2398,2395,2395,2395,2393,2393,2394,2394,2393,2393,2395,2398,2398,2399,2397,2398,2398,2400,2401,2402,2404,2402,2404,2404,2409,2410,2411,2409,2411,2411,2414,2415,2420,2423,2423,2426,2426,2426,2427,2431,2437,2440,2445,2444,0,0,0,0,0,0,0,0,0,0,0,0,1514,1448,0,0,0,0,1516,1470,0,0,0,0,0,0,0,0,0,0,0,0,0,0,0,0,0,0,0,0,0,1433,0,2469,2483,0,1316,1329,0,0,0,0,0,0,0,2385,2364,2331,2342,2313,0,0,0,0,0,0,0,0,0,0,0,0,0,0,0,0,0,2181,2199,2202,2206,2206,2202,2197,2186,2165,0,0,0,2011,1997,0,0,0,0,0,0,0,0,0,0,0,0,0,0,0,0,0,0,0,0,0,0,0,0,0,0
0,0,0,0,0,0,0,0,1383,1390,1401,1411,1414,1430,1431,1440,1440,1439,1447,1453,1486,1488,1523,1538,1550,1542,1548,1564,1583,1589,1594,1600,1606,1615,1629,1635,1637,1643,1653,1659,1662,1661,1660,1662,1669,1667,1660,1650,1641,0,1433,1402,1399,1417,1459,0,1679,1735,1741,1741,1751,1749,1745,1743,1746,1748,1750,1751,1753,1750,1755,1760,0,0,0,0,0,0,0,1462,1460,1455,1455,1457,1465,1471,1472,0,0,2267,2276,2285,2287,2291,2292,2297,2302,2308,2312,2315,2318,2321,2322,2325,2330,2334,2337,2340,2341,2344,2345,2348,2351,2356,2356,2357,2357,2359,2361,2361,2361,2360,2363,2365,2369,2363,2362,2359,2365,2366,2364,2362,2358,2355,2357,2356,2362,2362,2368,2360,2325,2286,2297,2329,2360,2370,2372,2378,2382,2393,2400,2417,2405,2408,2413,2427,2403,2374,2364,2353,2331,2297,2283,2281,2288,2299,2311,2317,2322,2327,2334,2341,2347,2353,2353,2357,2359,2362,2359,2353,2350,2347,2345,2343,2341,2340,2334,2332,2329,2329,2323,2319,2316,2314,2314,2312,2311,2308,2305,2302,2298,2293,2292,2290,2295,2293,2295,2290,2289,2288,2286,2284,2283,2283,2284,2282,2283,2284,2285,2284,2283,2285,2287,2284,2284,2287,2289,2290,2289,2291,2291,2291,2292,2293,2294,2294,2294,2294,2297,2300,2303,2304,2305,2308,2308,2307,2307,2307,2306,2306,2305,2309,2311,2312,2311,2313,2316,2316,2318,2319,2319,2317,2316,2317,2317,2316,2319,2323,2325,2322,2321,2320,2320,2320,2320,2318,2319,2321,2323,2322,2321,2320,2320,2321,2318,2321,2322,2326,2327,2329,2335,2335,2333,2332,2334,2340,2341,2342,2344,2347,2349,2347,2348,2347,2349,2351,2354,2357,2358,2360,2359,2360,2362,2364,2365,2367,2366,2368,2365,2366,2365,2368,2368,2370,2369,2373,2374,2380,2383,2386,2388,2391,2393,2393,2393,2395,2393,2397,2397,2399,2399,2402,2401,2399,2397,2399,2398,2400,2402,2404,2403,2400,2396,2394,2393,2395,2394,2395,2393,2394,2393,2394,2394,2395,2397,2396,2395,2395,2397,2399,2399,2404,2404,2407,2405,2409,2412,2412,2407,2406,2407,2413,2415,2418,2419,2421,2426,2424,2424,2424,2431,2441,2446,2447,2442,0,0,0,0,0,0,0,0,0,0,0,1477,1492,0,0,0,0,0,0,0,0,0,1541,1546,0,0,0,0,0,0,0,0,0,0,0,0,0,0,0,0,0,0,0,2457,2459,0,0,0,0,0,0,0,0,0,0,0,2344,2366,2337,2335,0,0,0,0,0,0,0,0,0,0,0,0,0,0,0,0,0,0,2190,2200,2203,2204,2200,2195,2185,2165,0,0,0,2004,0,0,0,0,0,0,0,0,0,0,0,0,0,0,0,0,0,0,0,0,0,0,0,0,0,0,0
0,0,0,0,0,0,0,0,1367,1396,1400,1403,1403,1408,1425,1423,1435,1448,1461,1476,1467,1496,1516,1532,1539,1539,1550,1565,1579,1580,1585,1594,1605,1617,1627,1633,1635,1643,1649,1653,1654,1654,1651,1653,1659,1659,1654,1644,1639,0,1450,1410,1400,1411,1448,0,1693,1738,1743,1750,1757,1753,1746,1744,1747,1750,1752,1753,1755,1751,1756,1760,0,0,0,1864,0,0,0,1471,1462,1458,1459,1463,1469,1474,1473,0,0,2265,2275,2283,2288,2290,2291,2293,2299,2306,2311,2314,2314,2317,2320,2323,2329,2334,2338,2340,2341,2344,2345,2349,2351,2355,2355,2356,2358,2361,2361,2359,2358,2359,2362,2362,2365,2360,2361,2359,2366,2367,2364,2357,2356,2355,2356,2353,2356,2358,2368,2361,2324,2284,2293,2323,2358,2366,2368,2373,2378,2388,2395,2402,0,0,0,0,0,0,2368,2357,2329,2291,2281,2282,2294,2305,2312,2317,2324,2329,2333,2341,2348,2353,2354,2356,2358,2360,2361,2355,2349,2346,2344,2344,2339,2338,2331,2329,2328,2328,2324,2320,2316,2316,2315,2312,2307,2305,2304,2301,2296,2292,2291,2290,2293,2294,2295,2291,2289,2288,2287,2286,2286,2287,2286,2285,2284,2285,2286,2284,2284,2283,2285,2283,2286,2289,2292,2291,2293,2291,2293,2290,2295,2292,2293,2292,2294,2295,2298,2301,2302,2304,2302,2303,2303,2306,2307,2305,2304,2302,2304,2306,2309,2309,2312,2314,2317,2319,2320,2320,2316,2315,2314,2317,2318,2320,2320,2322,2322,2321,2320,2319,2319,2319,2318,2317,2315,2317,2318,2318,2317,2317,2318,2323,2322,2324,2325,2328,2329,2332,2337,2339,2337,2334,2333,2337,2339,2342,2341,2345,2345,2344,2346,2346,2350,2351,2354,2356,2355,2358,2359,2360,2359,2361,2362,2364,2365,2365,2361,2362,2363,2368,2367,2370,2367,2372,2375,2382,2382,2384,2385,2387,2389,2392,2393,2395,2393,2397,2396,2397,2398,2399,2402,2402,2401,2398,2396,2398,2401,2402,2402,2399,2395,2393,2392,2395,2395,2397,2391,2391,2390,2394,2394,2396,2396,2397,2395,2396,2397,2398,2399,2403,2405,2406,2407,2409,2410,2409,2408,2410,2410,2415,2417,2418,2420,2423,2427,2425,2427,2432,2440,2448,2448,2448,2446,0,0,0,0,0,0,0,0,0,0,0,0,0,0,0,0,0,0,0,0,0,0,1453,1479,0,0,0,0,0,2807,0,0,0,0,0,0,0,0,0,0,0,0,0,0,0,0,0,0,0,0,0,0,0,0,0,0,0,0,2331,2308,0,0,0,0,0,0,0,0,0,0,0,0,0,0,0,0,0,0,2194,2203,2206,2205,2200,2197,2185,2172,0,0,0,0,0,0,0,0,0,0,0,0,0,0,0,0,0,0,0,0,0,0,0,0,0,0,0,0,0,0,0
0,0,0,0,0,0,0,0,0,1396,1398,1407,1403,1417,1415,1428,1444,1467,1486,1481,1485,1493,1518,1526,1530,1535,1548,1561,1571,1575,1580,1592,1603,1613,1619,1623,1629,1639,1645,1647,1650,1649,1648,1646,1651,1650,1646,1641,1640,1620,0,1411,1399,1411,1457,0,1691,1722,1741,1752,1759,1752,1751,1747,1746,1748,1753,1757,1759,1756,1758,1762,0,0,0,1867,0,0,0,1479,1473,1467,1466,1464,1468,1469,1474,1476,0,2266,2274,2280,2286,2288,2288,2290,2296,2301,2307,2311,2313,2316,2318,2323,2328,2334,2337,2340,2342,2347,2349,2353,2353,2353,2353,2354,2357,2359,2361,2358,0,0,0,0,0,0,0,0,0,0,0,0,0,0,0,0,0,0,0,0,0,0,0,0,0,0,0,0,0,0,0,0,0,0,0,0,0,0,0,0,2346,0,2275,2279,2294,2305,2310,2316,2323,2326,2332,0,2345,0,2348,2350,2351,2355,0,0,0,2346,2340,2336,2330,2330,2324,2322,2322,2323,2320,2314,2311,2313,2313,2308,2303,2303,2302,2294,2287,2284,2284,2283,2289,2294,2292,2288,2283,2284,2281,2279,2278,2282,2282,2281,2279,2281,2282,2283,2282,2279,2279,2280,2286,2288,2290,2288,2289,2289,2290,2289,2292,2290,2289,2290,2293,2294,2296,2298,2299,2300,2300,2302,2303,2306,2304,2302,2301,2303,2301,2302,2303,2306,2307,2308,2310,2314,2316,2316,2312,2310,2308,2314,2316,2317,2316,2318,2320,2320,2319,2318,2315,2317,2316,2316,2313,2314,2315,2319,2317,2319,2318,2321,2320,2323,2322,2325,2324,2329,2332,2335,2334,2334,2333,2335,2335,2339,2340,2344,2345,2343,2344,2344,2346,2347,2350,2352,2352,2356,2357,2356,2355,2357,2359,2362,2363,2365,2361,2362,2359,2362,2360,2362,2363,2370,2376,2380,2381,2383,2384,2384,2387,2391,2393,2395,2394,2394,2393,2394,2397,2397,2401,2400,2403,2400,2398,2397,2398,2397,2396,2395,2394,2394,2394,2398,2399,2400,2394,2394,2391,2395,2393,2397,2394,2396,2394,2396,2398,2399,2399,2401,2403,2405,2406,2408,2408,2406,2407,2408,2412,2416,2418,2419,2419,2425,2428,2428,2431,2434,2439,2445,2450,2458,2464,0,0,0,0,0,0,0,0,0,0,0,0,0,0,0,0,0,0,0,0,0,0,0,0,0,0,0,0,0,0,0,0,0,0,0,0,0,0,0,0,0,0,0,0,0,0,0,0,0,0,0,0,2274,0,0,0,0,0,0,0,0,0,0,0,0,0,0,0,0,0,0,0,0,0,0,0,0,0,2188,2201,2206,2202,2199,2190,2183,2155,0,0,0,0,0,0,0,0,0,0,0,0,0,0,0,0,0,0,0,0,0,0,0,0,0,0,0,0,0,0,0
0,0,0,0,0,0,0,0,0,1385,1398,1410,1425,1418,1417,1433,1462,1484,1488,1489,1488,1503,1516,1530,1538,1541,1552,1564,1570,1571,1584,1594,1609,1619,1621,1623,1628,1639,1643,1641,1642,1644,1644,1643,1643,1644,1641,1640,1641,1633,1449,1411,1403,1417,0,0,1677,1713,1731,1757,1758,1752,1748,1744,1744,1749,1754,1756,1755,1753,1755,1761,1776,0,0,1864,1856,0,0,1475,1472,1469,1472,1473,1474,1473,1476,1485,2263,2268,2276,2279,2284,2283,2289,2292,2300,2302,2306,2310,2314,2316,2319,2322,2328,2331,2336,2339,2345,2350,2352,2352,2353,2351,2348,0,0,0,0,0,0,0,0,0,0,0,0,0,0,0,0,0,0,0,0,0,0,0,0,0,0,1493,0,0,0,0,0,0,0,0,0,0,0,0,0,0,0,0,0,0,1498,1509,1516,1517,0,0,0,0,0,0,1510,0,0,0,0,0,0,0,0,0,0,0,0,0,0,0,0,0,0,0,0,0,0,0,0,0,0,0,0,0,0,0,0,0,0,0,0,0,0,0,0,0,0,0,0,0,0,0,2286,2272,0,0,0,0,2285,2283,2279,2286,0,2277,2290,2281,2283,2279,2281,2279,2289,2290,2293,2292,2288,2285,2287,2291,2295,2302,2304,2294,2289,2291,2292,2290,2291,2293,2293,2291,2295,2303,2308,2307,2305,2302,2299,2306,2310,2312,2307,2308,2307,2309,2309,2309,2305,2305,2305,2306,2305,2304,2305,2311,2310,2310,2308,2311,2313,2317,2318,2317,2317,2323,2325,2328,2328,2329,2328,2328,2328,2331,2334,2339,2338,2339,2338,2340,2341,2342,2343,2344,2344,2350,2349,2347,2346,2350,2353,2354,2358,2360,2357,2355,2354,2356,2355,2356,2360,2367,2371,2371,2373,2378,2379,2379,2376,2382,2386,2392,2390,2390,2388,2390,2394,2396,2399,2398,2400,2399,2399,2398,2396,2391,2389,2391,2393,2393,2393,2396,2399,2399,2393,2391,2390,2394,2392,2399,2395,2396,2394,2396,2399,2401,2402,2402,2401,2403,2404,2407,2407,2405,2409,2411,2413,2414,2416,2418,2420,2424,2425,2425,2429,2434,2438,2443,2448,2459,2458,0,0,0,0,1403,1392,1403,0,0,0,0,0,0,0,0,0,0,0,0,0,0,0,0,0,0,0,0,0,0,0,0,0,0,0,0,0,0,0,0,1301,0,0,0,0,0,0,0,0,0,0,0,0,0,2253,0,0,0,0,0,0,0,0,0,0,0,0,0,0,0,0,0,0,0,0,0,0,0,0,2176,2194,2199,2195,2189,2185,2175,2147,0,0,0,0,0,0,0,0,0,0,0,0,0,0,0,0,0,0,0,0,0,0,0,0,0,0,0,0,0,0,0
0,0,0,0,0,0,0,0,0,1408,1401,1406,1420,1429,1421,1447,1478,1489,1488,1486,1499,1504,1514,1526,1534,1541,1549,1561,1571,1580,1588,1601,1606,1614,1622,1622,1630,1638,1641,1638,1637,1641,1639,1637,1636,1639,1635,1636,1636,1626,1439,1405,1398,1412,0,0,1667,1694,1721,1749,1751,1744,1742,1740,1743,1747,1752,1754,1754,1753,1754,1762,1783,0,0,1854,1845,0,0,1471,1476,1475,1480,1478,1480,1479,1487,0,2254,2264,2273,2278,2282,2284,2290,2295,2300,2301,2303,2309,2314,2317,2318,2321,2324,2328,2331,2337,2343,2345,2343,2343,2350,0,0,0,0,0,1464,1470,1475,1480,1477,1479,1475,1475,1471,1471,1473,1476,1479,1483,1483,1480,1478,1478,1480,1482,1483,1483,1483,1485,1486,1485,1483,1483,1482,1486,1485,1487,1486,1485,1483,1485,1488,1488,1485,1485,1484,1484,1488,1494,1496,1495,1497,1497,1498,1497,1501,1500,1500,1501,1499,1498,1496,1497,1498,1501,1502,1503,1505,1506,1502,1502,1506,1511,1510,1507,1503,1502,1504,1507,1511,1513,1513,1512,1512,1513,1508,1510,1507,1518,1522,1519,1510,1513,1520,1523,1521,1518,1518,1523,1527,1530,1531,1532,1534,1537,1538,1532,1530,1535,1537,1533,1529,1536,1538,1535,1532,1531,1539,1543,1549,1546,1547,1544,1543,1541,1541,1546,1549,1549,1550,1550,1548,1547,1549,1545,1548,1555,1560,1564,1560,1554,1550,1552,1554,1551,1552,1558,1565,1556,1558,1570,0,0,0,1561,0,0,0,0,0,0,0,1579,0,0,0,0,0,0,0,0,0,0,0,0,0,0,0,0,0,0,0,0,0,0,0,0,0,0,0,0,0,0,0,0,0,0,0,0,0,0,0,0,0,0,0,0,0,0,0,0,0,0,0,0,0,0,0,0,2380,2370,2380,0,2381,2380,2380,2383,2389,2392,2394,2393,2398,2398,2399,2397,2396,2392,2390,2390,2392,2390,2390,2394,2398,2399,2394,2393,2392,2392,2392,2395,2393,2392,2390,2396,2400,2402,2403,2401,2399,2400,2401,2405,2404,2404,2406,2409,2413,2415,2415,2418,2420,2423,2422,2423,2430,2432,2435,2436,2444,2448,2454,0,0,0,0,0,0,0,0,0,0,0,0,0,0,0,0,0,0,0,0,0,0,0,0,0,0,0,0,0,2796,2776,2758,0,0,0,0,0,0,0,0,1371,0,0,0,0,0,0,0,0,0,2277,0,0,0,0,0,0,0,0,0,0,0,0,0,0,0,0,0,0,0,0,0,0,0,0,0,0,0,0,2171,2182,2173,2165,2162,2157,0,0,0,0,0,0,0,0,0,0,0,0,0,0,0,0,0,0,0,0,0,0,0,0,0,0,0,0,0,0,0,0
0,0,0,0,0,0,0,0,0,1418,1409,1405,1416,1433,1439,1463,1476,1479,1473,1487,1503,1516,1518,1529,1531,1537,1546,1568,1575,1582,1591,1596,1603,1612,1621,1625,1632,1639,1641,1635,1632,1632,1630,1631,1630,1634,1630,1635,1635,1629,0,1404,1395,1406,1448,0,1674,1683,1720,1751,1748,1738,1727,1733,1742,1746,1750,1750,1753,1753,1754,1763,1787,0,0,1849,1846,1863,0,1474,1480,1482,1485,1483,1484,1481,1491,0,0,2252,2268,2277,2280,2284,2296,2299,2300,2298,2302,2307,2310,2315,2317,2321,2322,2325,2328,2331,2336,2331,2327,0,0,1473,1483,1488,1481,1475,1472,1475,1476,1478,1477,1478,1474,1474,1471,1471,1474,1476,1479,1478,1479,1476,1475,1473,1476,1477,1477,1475,1477,1482,1484,1483,1481,1482,1483,1483,1482,1482,1483,1483,1483,1484,1485,1487,1485,1484,1480,1479,1483,1489,1492,1491,1492,1491,1494,1494,1496,1496,1495,1497,1496,1496,1495,1496,1500,1500,1499,1496,1497,1499,1500,1499,1502,1502,1504,1502,1502,1501,1502,1502,1504,1504,1506,1505,1504,1504,1504,1505,1504,1509,1512,1514,1510,1513,1515,1515,1511,1510,1510,1513,1514,1518,1518,1518,1518,1520,1523,1521,1519,1520,1520,1517,1516,1518,1520,1520,1519,1521,1522,1523,1526,1527,1529,1529,1527,1526,1524,1529,1531,1534,1533,1532,1530,1531,1529,1529,1529,1535,1540,1541,1538,1536,1536,1538,1540,1539,1539,1544,1546,1544,1543,1547,1548,1550,1545,1547,1547,1552,1547,1539,1541,1547,1552,1552,1552,1553,1553,1554,1557,1556,1549,1544,1545,1547,1547,1551,1556,1559,1556,1553,1557,1562,1562,1561,1563,1564,1558,1558,1560,1564,1567,1565,1565,1570,1565,1567,1565,1567,1566,1567,1569,1564,1563,1561,1559,1569,1575,1582,1580,1576,1570,1568,1571,1572,1575,1575,1577,1576,1572,1565,1569,1570,1575,1571,0,0,0,0,0,2384,2385,2387,2392,2392,2395,2395,2395,2388,2388,2388,2390,2389,2390,2393,2395,2394,2390,2388,2389,2389,2391,2392,2392,2392,2393,2398,2401,2403,2403,2400,2400,2401,2403,2405,2404,2405,2407,2410,2411,2412,2413,2416,2416,2420,2419,2422,2428,2433,2437,2437,2439,2442,2441,0,0,0,0,0,0,0,0,0,0,0,0,0,0,0,0,0,0,0,0,0,0,0,0,0,0,0,0,0,0,0,0,0,0,0,0,0,0,0,1338,1370,1378,0,0,0,0,0,0,0,2287,2293,2308,0,0,0,0,0,0,0,0,0,0,0,0,0,0,0,0,0,0,0,0,0,0,0,0,0,0,0,0,0,0,0,0,0,0,0,0,0,0,0,0,0,0,0,0,0,0,0,0,0,0,0,0,0,0,0,0,0,0,0,0,0,0,0,0,0
0,0,0,0,0,0,0,0,1428,1422,1415,1414,1418,1422,1437,1458,1473,1485,1486,1491,1512,1518,1523,1529,1534,1537,1557,1563,1572,1586,1594,1594,1597,1607,1616,1621,1626,1629,1630,1630,1629,1627,1623,1625,1629,1632,1632,1632,1629,1625,0,1402,1392,1403,1444,0,0,0,0,0,0,0,0,0,1744,1748,1750,1751,1754,1755,1756,1768,1812,0,0,1850,1848,0,0,1480,1487,1484,1484,1483,1485,1487,1490,0,0,2248,2262,2268,2277,2286,2296,2297,2294,2292,2296,2303,2309,2315,2318,2324,2323,2324,2320,2315,0,0,0,1476,1474,1482,1480,1485,1475,1474,1473,1478,1475,1475,1472,1474,1471,1472,1471,1471,1471,1473,1474,1475,1476,1476,1474,1473,1475,1476,1477,1475,1477,1481,1483,1483,1480,1482,1482,1482,1481,1482,1483,1484,1482,1484,1485,1487,1486,1485,1483,1482,1483,1487,1489,1488,1488,1488,1493,1493,1494,1492,1492,1493,1493,1493,1493,1496,1500,1499,1497,1493,1494,1495,1497,1498,1500,1500,1501,1502,1503,1502,1501,1501,1502,1502,1503,1501,1500,1501,1503,1504,1502,1505,1507,1510,1510,1512,1512,1510,1508,1509,1510,1512,1510,1512,1512,1514,1513,1515,1517,1518,1516,1517,1517,1516,1514,1515,1516,1517,1518,1518,1519,1520,1523,1523,1525,1525,1525,1524,1522,1525,1529,1531,1530,1528,1527,1526,1526,1524,1524,1528,1531,1532,1531,1532,1533,1535,1536,1536,1535,1537,1537,1538,1540,1541,1543,1544,1542,1542,1540,1543,1540,1538,1538,1543,1547,1547,1547,1548,1548,1548,1550,1549,1546,1542,1542,1546,1545,1549,1549,1551,1550,1549,1553,1556,1557,1555,1556,1557,1557,1554,1555,1556,1555,1556,1554,1560,1558,1561,1561,1563,1561,1562,1560,1561,1557,1559,1559,1563,1566,1567,1568,1568,1566,1566,1565,1566,1568,1572,1572,1572,1566,1563,1563,1569,1573,1572,1570,1567,1574,1575,1576,1574,0,0,2381,2383,2389,2392,2394,2390,2389,2389,2388,2389,2390,2392,2390,2391,2390,2389,2390,2390,2391,2391,2391,2391,2390,2393,2397,2398,2400,2399,2403,2402,2402,2403,2403,2404,2406,2410,2411,2414,2414,2417,2416,2419,2422,2425,2431,2432,2436,2437,2441,2443,2458,0,0,0,0,0,0,0,0,0,0,0,0,0,0,0,0,0,0,0,0,0,0,0,0,0,0,0,0,0,0,0,0,0,0,0,0,0,0,0,0,1382,1387,1348,1352,0,0,0,0,0,0,0,2283,2261,0,0,0,0,0,0,0,0,0,0,0,0,0,0,0,0,0,0,0,0,0,0,0,0,0,0,0,0,0,0,0,0,0,0,0,0,0,0,0,0,0,0,0,0,0,0,0,0,0,0,0,0,0,0,0,0,0,0,0,0,0,0,0,0
0,0,0,0,0,0,0,0,1410,1404,1413,1417,1422,1418,1422,1443,1475,1488,1487,1490,1502,1519,1524,1528,1532,1550,1560,1564,1568,1577,1588,1591,1597,1608,1612,1614,1615,1616,1619,1622,1623,1619,1620,1623,1629,1631,1633,1631,1625,0,0,1396,1388,1398,1428,0,0,2468,2472,2447,0,0,0,0,1752,1750,1751,1750,1756,1756,1758,1774,1816,0,0,1855,1855,1870,0,1494,1485,1485,1482,1484,1486,1490,1495,0,2246,2251,2261,2263,2271,2282,2291,2294,2294,2293,2298,2303,2310,2315,2320,2321,2321,2316,2308,0,0,1464,1477,1480,1479,1481,1478,1480,1475,1474,1471,1473,1471,1472,1471,1474,1471,1471,1470,1472,1472,1473,1473,1474,1475,1476,1474,1472,1472,1474,1476,1477,1478,1477,1477,1479,1479,1481,1481,1483,1481,1480,1481,1484,1484,1485,1484,1486,1485,1486,1483,1484,1484,1487,1489,1488,1488,1487,1491,1492,1493,1491,1490,1491,1493,1492,1493,1495,1500,1499,1496,1493,1495,1496,1496,1496,1498,1496,1498,1500,1503,1502,1501,1500,1500,1501,1502,1501,1501,1501,1504,1504,1504,1505,1507,1510,1510,1510,1509,1509,1508,1510,1510,1512,1511,1512,1512,1513,1510,1511,1514,1516,1516,1516,1517,1515,1514,1514,1516,1517,1518,1518,1519,1520,1522,1522,1524,1524,1524,1523,1522,1525,1528,1530,1528,1527,1526,1526,1527,1526,1526,1529,1530,1529,1530,1533,1535,1535,1535,1536,1535,1536,1535,1537,1539,1541,1542,1543,1544,1541,1538,1538,1539,1538,1540,1542,1545,1546,1546,1546,1547,1546,1549,1547,1547,1545,1545,1545,1544,1546,1547,1548,1549,1550,1554,1556,1555,1552,1551,1553,1553,1552,1552,1552,1550,1553,1553,1558,1555,1558,1557,1559,1559,1559,1558,1559,1559,1560,1563,1564,1563,1563,1564,1566,1566,1565,1563,1563,1566,1570,1571,1570,1566,1563,1565,1568,1574,1576,1572,1567,1568,1574,1576,1578,1586,1593,0,2369,2383,2391,2393,2390,2387,2386,2385,2389,2389,2389,2387,2389,2391,2389,2387,2387,2387,2390,2392,2394,2393,2391,2394,2396,2401,2401,2405,2403,2403,2402,2404,2405,2408,2412,2411,2414,2414,2416,2416,2419,2426,2428,2431,2435,2439,2444,2445,2452,0,0,0,0,0,0,0,0,0,0,1406,0,0,0,0,0,0,0,0,0,0,0,0,0,0,0,0,0,0,0,0,0,0,0,0,0,0,0,0,0,0,1368,1408,1364,0,1387,0,0,0,0,0,0,2279,2277,0,0,0,0,0,0,2276,2274,0,0,0,0,0,0,0,0,0,0,0,0,0,0,0,0,0,0,0,0,2128,2120,0,0,0,0,0,0,0,0,0,0,0,0,0,0,0,0,0,0,0,0,0,0,0,0,0,0,0,0,0,0,0,0,0,0
0,0,0,0,0,0,0,0,0,1383,1395,1409,1418,1413,1420,1443,1477,1491,1488,1482,1495,1503,1516,1522,1531,1541,1555,1560,1567,1578,1590,1599,1601,1607,1610,1612,1610,1610,1609,1614,1617,1620,1621,1620,1625,1624,1627,1622,1615,0,0,1401,1389,1396,1411,2481,2471,2472,2475,2452,0,0,0,0,1752,1753,1750,1749,1753,1755,1755,1775,0,0,0,1857,1856,1886,0,1501,1490,1487,1486,1492,1495,1500,1506,0,2251,2255,2261,2265,2274,2281,2291,2296,2298,2300,2301,2304,2310,2315,2321,2317,2312,2295,0,0,1486,1488,1483,1483,1482,1482,1480,1480,1476,1474,1468,1468,1465,1468,1469,1473,1474,1473,1474,1475,1476,1474,1471,1474,1475,1479,1477,1475,1474,1476,1479,1480,1480,1476,1475,1477,1479,1481,1481,1484,1482,1482,1482,1485,1487,1487,1486,1485,1484,1485,1484,1486,1487,1488,1488,1487,1487,1486,1490,1492,1493,1490,1490,1491,1495,1494,1496,1497,1502,1500,1498,1496,1498,1499,1499,1498,1499,1498,1499,1502,1505,1505,1503,1501,1503,1504,1504,1502,1504,1504,1505,1505,1505,1508,1510,1513,1512,1509,1508,1508,1510,1512,1512,1514,1513,1513,1512,1513,1512,1513,1513,1515,1515,1518,1519,1518,1517,1516,1517,1518,1520,1518,1521,1522,1526,1525,1525,1523,1525,1524,1525,1527,1530,1531,1529,1527,1527,1527,1528,1529,1530,1531,1530,1529,1531,1534,1534,1533,1533,1535,1535,1534,1534,1537,1541,1542,1541,1543,1544,1541,1539,1537,1540,1540,1541,1543,1545,1547,1545,1545,1545,1545,1547,1546,1549,1548,1549,1549,1548,1548,1546,1546,1546,1550,1554,1553,1552,1549,1550,1551,1554,1552,1552,1551,1549,1550,1550,1555,1554,1558,1557,1556,1555,1556,1558,1560,1561,1562,1564,1564,1564,1562,1564,1565,1567,1566,1565,1564,1565,1567,1569,1569,1569,1568,1567,1568,1572,1574,1569,1567,1571,1577,1580,1579,1582,1585,1589,1585,0,2382,2390,2390,2389,2389,2387,2389,2388,2387,2384,2387,2391,2391,2387,2386,2386,2390,2391,2393,2389,2389,2393,2396,2399,2400,2402,2401,2401,2401,2402,2404,2406,2411,2412,2414,2414,2416,2418,2421,2427,2429,2433,2435,2440,2444,2446,2467,0,2643,0,0,0,0,0,0,0,0,0,0,0,0,0,0,0,0,0,0,1493,0,0,0,0,0,0,0,0,0,0,0,0,0,0,0,0,0,0,0,0,0,1342,0,1353,0,0,0,2289,0,0,2277,2287,0,0,2356,0,0,0,0,2305,2319,0,0,0,0,0,0,0,0,0,0,0,0,0,0,0,0,0,2155,2177,2181,2178,2175,2169,2132,0,0,0,0,0,0,0,0,0,0,0,0,0,0,0,0,0,0,0,0,0,0,0,0,0,0,0,0,0,0,0,0
0,0,0,0,0,0,0,0,0,1363,1388,1401,1420,1420,1435,1447,1458,1466,1477,1474,1486,1495,1516,1521,1526,1531,1557,1569,1573,1579,1591,1604,1608,1610,1611,1608,1608,1607,1611,1612,1618,1620,1621,1619,1621,1618,1616,1614,1610,1590,0,1408,1394,1396,1413,0,2474,2466,2460,2452,0,0,0,0,1750,1747,1746,1746,1752,1752,1751,1772,0,2064,0,1851,1850,0,0,1511,1501,1499,1504,1503,1499,1498,1505,0,2248,2255,2260,2268,2277,2282,2287,2291,2296,2299,2302,2304,2311,2314,2318,2311,2302,0,0,0,1494,1489,1484,1482,1481,1481,1481,1480,1479,1477,1471,1468,1464,1467,1471,1474,1475,1472,1475,1477,1479,1475,1473,1474,1477,1480,1479,1479,1479,1479,1480,1481,1483,1479,1478,1479,1480,1482,1483,1485,1484,1482,1486,1488,1490,1488,1487,1486,1486,1488,1486,1488,1493,1494,1495,1491,1491,1489,1493,1495,1497,1494,1493,1495,1501,1502,1501,1500,1504,1504,1501,1500,1502,1505,1505,1504,1502,1501,1501,1502,1505,1506,1505,1502,1506,1508,1509,1506,1510,1510,1508,1509,1510,1514,1514,1517,1515,1511,1508,1512,1513,1515,1514,1517,1517,1515,1515,1514,1516,1516,1517,1518,1519,1519,1519,1519,1521,1519,1519,1519,1521,1521,1522,1524,1526,1526,1527,1524,1527,1526,1530,1532,1532,1533,1531,1530,1529,1528,1532,1535,1539,1537,1533,1531,1533,1537,1538,1535,1536,1536,1539,1536,1538,1539,1542,1542,1542,1544,1546,1545,1545,1541,1543,1540,1544,1545,1547,1547,1545,1544,1546,1547,1547,1545,1547,1550,1552,1549,1547,1548,1544,1544,1545,1550,1554,1552,1551,1547,1549,1550,1553,1552,1554,1553,1554,1555,1554,1556,1557,1557,1555,1554,1555,1558,1559,1562,1563,1563,1564,1565,1567,1566,1564,1563,1562,1564,1564,1564,1564,1566,1568,1569,1571,1571,1568,1566,1568,1571,1571,1571,1573,1574,1578,1578,1578,1580,1582,1593,1596,0,2382,2387,2387,2389,2389,2389,2387,2387,2387,2389,2392,2391,2388,2385,2385,2388,2391,2393,2390,2391,2395,2399,2401,2401,2402,2402,2402,2400,2399,2401,2406,2409,2411,2412,2413,2416,2418,2422,2425,2429,2431,2436,2440,2440,2441,2471,0,2652,0,0,0,0,0,0,0,0,0,0,0,0,0,0,0,0,0,0,0,0,0,0,0,0,0,0,0,0,0,0,0,2776,2809,0,0,0,0,0,0,1390,0,0,0,0,0,0,0,0,0,2282,2300,0,0,0,0,0,2354,2312,2341,0,2306,0,0,0,0,0,0,0,0,0,0,0,0,0,0,0,0,2190,2202,2197,2194,2193,2188,2173,2103,0,0,0,0,0,0,0,0,0,0,0,0,0,0,0,0,0,0,0,0,0,0,0,0,0,0,0,0,0,0,0
0,0,0,0,0,0,0,0,0,1370,1389,1407,1423,1427,1442,1441,1458,1467,1478,1480,1485,1491,1512,1521,1525,1538,1564,1579,1581,1587,1593,1603,1604,1606,1608,1607,1606,1608,1612,1614,1618,1616,1616,1613,1614,1611,1609,1605,1600,0,0,1413,1397,1401,1416,2482,2488,2470,2458,2461,0,0,0,0,1749,1750,1747,1747,1748,1752,1754,1775,0,2052,0,1848,1847,0,0,1493,1500,1504,1509,1508,1501,1500,1507,0,2241,2248,2253,2262,2272,2278,2280,2283,2290,2296,2297,2299,2303,2308,2310,2309,2286,2298,0,1499,1501,1493,1486,1483,1482,1481,1479,1478,1477,1479,1475,1471,1464,1466,1471,0,0,0,0,1484,1487,0,0,0,0,0,0,0,0,0,0,0,0,0,0,0,0,0,0,0,0,0,0,0,0,0,0,0,0,0,0,0,0,1513,1513,0,1501,0,0,0,0,0,0,0,0,0,0,0,0,0,0,0,0,0,0,0,0,0,0,0,0,0,0,0,0,0,1519,1516,1521,0,0,0,1523,0,1522,0,1522,0,1519,1523,1522,0,1524,0,1528,1525,0,1523,1528,1530,1529,1530,1529,1527,1524,1525,1531,1529,1529,1528,1533,1534,1534,1534,1536,1538,1535,1535,1540,1543,1546,1547,1546,1544,1543,1543,1542,1538,1541,1547,1549,1546,1540,1535,1538,1545,1549,1546,1543,1542,1546,1546,1549,1548,1547,1547,1550,1552,1553,1555,1557,1551,1553,1549,1551,1556,1555,1553,1548,1551,1553,1554,1551,1547,1550,1556,1558,1554,1551,1555,1547,1542,1547,1553,1556,1555,1551,1549,1551,1551,1556,1558,1559,1560,1564,1562,1558,1556,1564,1562,1557,1555,1561,1563,1562,1563,1566,1566,1564,1565,1570,1570,1567,1561,1563,1568,1571,1567,1565,1566,1570,1573,1575,1572,1567,1565,1566,1571,1572,1575,1576,1576,1579,1580,1580,1583,1587,1592,1592,1594,0,2382,2386,2389,2391,2390,2387,2386,2385,2386,2388,2391,2390,2387,2387,2391,2395,2395,2393,2394,2398,2401,2399,2399,2400,2402,2401,2400,2400,2400,2405,2406,2409,2409,2411,2415,2418,2423,2425,2427,2429,2430,2433,2434,2440,2456,0,0,0,0,0,1469,0,0,0,0,0,0,0,0,0,0,0,0,0,0,0,0,0,0,0,0,0,0,0,0,0,0,0,0,0,0,0,0,0,0,1401,1388,0,1433,0,0,0,0,0,0,2266,2285,0,0,0,0,0,2337,2346,2342,2348,0,0,0,0,0,0,0,0,0,0,0,0,0,0,0,0,0,0,2205,2210,2203,2203,2202,2198,2185,0,0,0,0,0,0,0,0,0,0,0,0,0,0,0,0,0,0,0,0,0,0,0,0,0,0,0,0,0,0,0,0
0,0,0,0,0,0,0,0,0,1380,1401,1412,1427,1425,1436,1441,1466,1465,1480,1488,1492,1497,1512,1518,1529,1541,1562,1576,1581,1586,1591,1599,1601,1607,1607,1605,1605,1609,1616,1617,1615,1609,1609,1610,1612,1608,1608,1605,1598,1524,1459,1412,1399,1403,1421,2482,2489,2480,2472,2469,0,0,0,1782,1748,1748,1748,1748,1751,1751,1754,1773,0,2044,0,1845,1846,0,0,0,1504,1510,1511,1510,1504,1503,1512,0,2227,2234,2238,2243,2254,2258,2260,2262,2272,2278,2280,2281,2283,2289,2293,2293,2289,2288,0,1498,1496,1488,1487,1484,1484,1482,1479,1476,1479,1483,1484,1460,0,0,0,0,0,0,0,0,0,0,0,0,0,0,0,0,0,0,0,0,0,2290,0,0,0,0,0,0,0,0,0,0,0,0,0,0,0,0,0,0,0,2256,0,0,0,0,0,0,0,0,0,0,0,0,0,0,0,0,0,0,0,0,0,0,0,0,0,0,0,0,0,0,0,0,2340,2339,2337,0,0,2329,0,2326,0,0,0,2329,2321,0,2320,2324,0,2316,0,2312,0,0,2313,2307,2310,0,0,0,0,2305,2308,2310,2317,2310,2300,2297,2301,2302,2308,2305,2305,2309,2310,2300,2293,2294,2300,2310,2308,2308,0,0,2290,2303,0,0,0,0,0,0,0,0,0,0,2320,2314,0,0,0,0,0,0,0,0,0,0,0,0,0,0,0,0,0,0,0,0,0,0,0,0,0,0,0,0,0,0,0,0,0,0,0,0,0,0,0,0,0,0,0,0,0,0,0,0,0,0,0,0,0,0,0,0,1576,0,0,1587,1585,0,0,1591,1582,1575,0,1568,1586,1590,1581,1572,1568,0,1573,1576,1580,1577,1574,1573,1577,1579,1579,1584,1585,1587,1584,1591,0,2380,2385,2390,2393,2391,2386,2385,2386,2387,2388,2390,2391,2388,2388,2391,2397,2397,2395,2395,2399,2401,2399,2399,2400,2401,2401,2400,2402,2402,2407,2408,2413,2413,2412,2412,2417,2423,2427,2427,2430,2430,2434,2432,2439,0,0,0,0,0,0,0,0,0,0,0,0,0,0,0,0,0,0,0,0,0,2777,0,0,0,0,0,0,0,0,0,0,0,0,0,0,0,0,0,0,0,1403,1418,1396,1430,0,0,0,0,0,0,2276,2290,0,0,0,0,0,2352,2338,2345,2315,2269,0,0,0,0,0,0,0,0,0,0,0,0,0,0,0,0,0,2214,2214,2207,2206,2204,2201,2186,0,0,0,0,0,0,0,0,0,0,0,0,0,0,0,0,0,0,0,0,0,0,0,0,0,0,0,0,0,0,0,0
0,0,0,0,0,0,0,0,0,1378,1400,1414,1425,1421,1433,1445,1475,1488,1478,1485,1497,1499,1506,1518,1530,1543,1553,1565,1574,1582,1589,1599,1600,1603,1598,1602,1603,1608,1611,1610,1604,1601,1602,1609,1609,1606,1605,1603,1605,0,1446,1412,1398,1399,0,0,2477,2475,2471,2459,0,0,0,0,1750,1753,1750,1749,1752,1753,1753,1769,0,2036,0,1850,1849,0,0,0,1518,1514,1516,1520,1521,1519,1524,0,2205,2208,2208,2209,2215,2220,2224,2233,2241,2249,2248,2247,2242,2252,2270,2289,2286,2300,0,1498,1498,1492,1492,1488,1489,1488,1484,1479,0,0,0,0,0,2262,0,0,2294,2290,0,2307,2311,2308,2308,2309,2313,2314,2321,2326,2329,2330,2328,2330,2323,2322,2341,2353,2359,2356,2358,2358,2362,2364,2370,2373,2382,2383,2368,2345,2343,2343,2343,2323,2282,2262,2266,2288,2332,2373,2431,2472,2493,2500,2503,2508,2501,2479,2437,2401,2396,2408,2411,2405,2405,2407,2407,2400,2395,2394,2389,2386,2378,2375,2369,2365,2361,2355,2350,2350,2351,2349,2342,2338,2339,2342,2344,2342,2339,2335,2331,2328,2331,2336,2333,2329,2327,2327,2329,2330,2328,2324,2325,2324,2327,2324,2321,2318,2315,2315,2316,2319,2317,2311,2311,2312,2314,2315,2314,2317,2316,2316,2312,2312,2314,2318,2318,2316,2310,2312,2314,2319,2318,2315,2316,2321,2325,2322,2319,2318,2324,2327,2327,2326,2325,2323,2321,2319,2318,2319,2320,2320,2319,2320,2326,2332,2327,2322,2316,2316,2318,2325,2331,2329,2327,2323,2324,2322,2321,2317,2322,2333,2335,2332,2335,2337,2334,2334,2336,2337,2338,2341,2349,2350,2348,2344,2341,2341,2340,2339,2341,2346,2350,2353,2353,2358,2357,2353,2350,2352,2354,2356,2359,2358,2359,2362,2364,2366,2361,2363,2362,2369,2370,2371,2367,2368,2370,0,2371,2375,0,0,1569,1572,1573,1579,1580,1587,1588,1585,1582,1590,0,0,2382,2387,2390,2389,2385,2382,2383,2384,2385,2389,2391,2390,2390,2393,2399,2398,2396,2394,2397,2399,2396,2396,2397,2399,2399,2402,2403,2405,2407,2408,2411,2413,2412,2413,2418,2425,2429,2428,2429,2432,2434,2439,2425,0,0,0,0,0,0,0,0,0,0,0,0,0,0,0,0,0,0,0,0,0,0,0,0,0,0,0,0,0,0,0,0,0,0,0,0,0,0,0,0,0,1402,0,1434,0,0,0,0,0,0,2267,2291,0,0,0,0,0,0,2353,2336,2318,2356,2269,0,0,0,0,0,0,0,0,0,0,0,0,0,0,0,0,0,2212,2216,2209,2209,2204,2200,2183,0,0,0,0,0,0,0,0,0,0,0,0,0,0,0,0,0,0,0,0,0,0,0,0,0,0,0,0,0,0,0,0
0,0,0,0,0,0,0,0,0,1382,1398,1411,1424,1429,1438,1450,1489,1503,1494,1487,1501,1503,1511,1519,1534,1548,1554,1558,1563,1577,1586,1597,1598,1601,1597,1598,1596,1599,1600,1602,1600,1603,1604,1608,1607,1601,1598,1598,1604,1597,1436,1406,1395,1397,1410,0,2459,2482,2476,2466,0,0,0,0,1747,1747,1751,1750,1757,1753,1751,1762,0,2022,2008,1854,1850,1861,0,0,1527,1518,1521,1524,1528,1526,1536,0,0,2191,2194,2196,2201,2201,2204,2207,2217,2222,2223,2224,2226,2237,2257,2275,2288,2290,0,1497,1495,1494,1498,1495,1498,1502,1508,0,0,0,2270,2264,2298,2295,2293,2305,2329,2334,0,2372,2395,0,2333,2335,2337,2335,2334,2340,2344,2350,2351,2357,2357,2361,2365,2364,2361,2357,2358,2360,2364,2365,2368,2371,2379,2375,2355,2344,2344,2343,2341,2311,2272,2259,2266,2301,2359,2416,2460,2485,2496,2497,2501,2506,2503,2487,2459,2441,2438,2437,2429,2420,2411,2410,2406,2406,2404,2399,2392,2386,2381,2380,2377,2374,2368,2365,2360,2359,2357,2355,2350,2348,2351,2350,2349,2343,2341,2339,2338,2338,2339,2341,2340,2335,2335,2335,2339,2338,2339,2337,2337,2331,2329,2328,2327,2327,2323,2324,2324,2328,2326,2320,2320,2321,2321,2320,2319,2321,2320,2322,2319,2318,2319,2322,2323,2322,2319,2323,2324,2327,2324,2325,2325,2327,2330,2329,2326,2327,2329,2332,2333,2333,2333,2330,2328,2326,2326,2326,2327,2327,2326,2329,2333,2335,2330,2325,2323,2325,2327,2330,2331,2331,2329,2328,2330,2330,2331,2329,2332,2334,2339,2340,2341,2342,2341,2341,2343,2344,2348,2350,2354,2354,2353,2352,2350,2352,2350,2350,2350,2356,2358,2358,2356,2360,2362,2361,2362,2363,2366,2367,2368,2369,2370,2372,2373,2372,2369,2370,2372,2378,2381,2381,2378,2377,2379,2384,2384,2383,2379,2376,2371,0,0,1564,1581,1587,1588,1589,1585,1592,1609,2373,2381,2386,2387,2386,2384,2382,2384,2384,2385,2387,2388,2389,2388,2393,2396,2395,2391,2391,2395,2397,2396,2394,2394,2398,2399,2402,2404,2408,2407,2408,2413,2416,2415,2413,2417,2424,2430,2429,2431,2435,2443,2445,2455,0,0,0,0,0,0,0,0,0,0,0,0,0,0,0,0,0,0,0,0,0,0,0,0,0,0,0,0,0,0,0,0,0,2773,2771,0,0,0,0,0,0,1423,1406,1411,0,0,0,0,0,0,2275,2293,0,0,0,0,0,0,0,2339,2381,2323,0,0,0,0,0,0,0,0,0,0,0,0,0,0,0,0,0,0,2213,2218,2210,2209,2201,2196,2180,0,0,0,0,0,0,0,0,0,0,0,0,0,0,0,0,0,0,0,0,0,0,0,0,0,0,0,0,0,0,0,0
0,0,0,0,0,0,0,0,0,1378,1397,1406,1419,1438,1436,1444,1481,1490,1492,1495,1493,1506,1513,1523,1530,1552,1554,1558,1561,1574,1585,1592,1590,1594,1592,1594,1589,1588,1585,1587,1590,1598,1599,1601,1598,1595,1588,1590,1597,1590,1424,1403,1394,1400,1417,0,2482,2479,2488,2480,0,0,0,0,1741,1745,1751,1753,1757,1753,1747,1754,0,0,0,1854,1849,1866,0,0,1531,1522,1529,1534,1537,1529,1540,0,0,2168,2175,2183,2193,2197,2191,2198,2210,2226,2225,2231,2233,2240,2245,2260,2270,0,1514,1505,1503,1501,1504,1505,1510,1519,0,0,0,0,0,2417,2425,0,2368,2387,0,2423,0,2459,2469,0,2383,2356,2358,2356,2350,2352,2355,2364,2368,2375,2377,2379,2372,2364,2358,2357,2359,2364,2367,2370,2373,2375,2375,2360,2346,2342,2342,2343,2337,2305,2268,2262,2276,0,0,2458,2482,2496,2499,2492,2491,2500,2496,0,2480,0,0,0,2459,2439,2425,2411,2407,2411,2410,2405,2396,2393,2391,2392,2389,2383,2377,2373,2371,2367,2367,2363,2361,2359,2361,2358,2352,2346,2346,2347,2348,2352,2351,2352,2347,2344,2343,2345,2348,2345,2346,2346,2346,2338,2333,2334,2334,2331,2327,2330,2332,2335,2333,2329,2329,2327,2324,2323,2322,2324,2321,2326,2323,2323,2320,2323,2325,2327,2326,2330,2331,2332,2329,2331,2329,2332,2333,2335,2332,2332,2333,2336,2336,2338,2338,2336,2334,2331,2332,2331,2332,2331,2332,2337,2339,2337,2330,2327,2328,2331,2331,2332,2330,2329,2326,2328,2330,2333,2335,2335,2336,2336,2340,2343,2345,2345,2345,2345,2346,2347,2351,2354,2357,2355,2354,2355,2356,2358,2356,2356,2354,2359,2359,2360,2359,2363,2365,2364,2365,2366,2370,2371,2370,2370,2371,2374,2376,2377,2375,2375,2379,2386,2389,2388,2385,2383,2384,2387,2386,2386,2381,2380,2375,2363,0,0,0,1592,1594,1596,1592,1598,1610,0,2382,2383,2384,2384,2383,2383,2384,2386,2387,2389,2388,2387,2389,2394,2398,2395,2391,2389,2392,2395,2396,2395,2396,2400,2401,2403,2403,2406,2405,2408,2410,2414,2413,2415,2417,2423,2430,2432,2432,2436,2440,2456,2511,0,0,0,0,0,0,0,0,0,0,0,0,0,0,0,0,0,0,0,0,0,0,0,0,0,0,0,0,0,0,0,0,0,0,0,2768,0,0,0,0,0,0,1410,1348,0,0,0,0,0,0,2270,0,0,1305,0,0,0,0,0,0,0,0,0,0,0,0,0,0,0,0,0,0,0,0,0,0,0,0,0,0,2212,2213,2206,2205,2198,2193,2182,0,0,0,0,0,0,0,0,0,0,0,0,0,0,0,0,0,0,0,0,0,0,0,0,0,0,0,0,0,0,0,0
0,0,0,0,0,0,0,0,0,1389,1397,1407,1414,1418,1441,1458,1459,1473,1490,1487,1486,1499,1519,1526,1533,1551,1562,1566,1566,1571,1578,1581,1580,1584,1590,1592,1586,1585,1584,1585,1588,1595,1595,1595,1595,1593,1585,1586,1590,1570,1418,1403,1395,1402,1418,2482,2489,2489,2491,2491,0,0,0,1720,1734,1743,1753,1755,1756,1750,1746,1749,0,0,1886,1848,1847,1865,0,0,1541,1536,1532,1528,1530,1531,0,0,0,2152,2152,0,0,2216,2236,2237,0,0,0,0,0,2270,0,0,0,0,1506,1501,1503,1504,1513,1518,1534,1535,0,2362,0,2431,2443,2446,2444,2433,0,2437,2445,2452,2465,2478,2484,2473,2408,2369,2365,2362,2358,2358,2363,2367,2371,2375,2379,2381,2372,2362,2355,2357,2360,2365,2367,2369,2370,2374,2367,2351,2342,2342,2342,2342,2333,2297,2268,2268,2287,2372,0,2478,2492,2499,2486,0,0,0,0,0,0,0,0,0,0,0,0,0,2396,2427,2423,2416,2409,2406,2404,2404,2400,2393,2388,2385,2381,2376,2373,2372,2370,2367,2369,2364,2359,2355,2356,2355,2355,2357,2359,2357,2352,2347,2346,2348,2353,2349,2349,2351,2354,2349,2341,2341,2338,2335,2333,2334,2337,2339,2337,2334,2333,2331,2330,2328,2328,2329,2328,2332,2328,2327,2325,2328,2330,2331,2333,2334,2336,2335,2333,2334,2331,2333,2335,2340,2338,2336,2335,2339,2337,2339,2341,2341,2339,2335,2335,2336,2334,2333,2333,2337,2339,2337,2332,2330,2332,2333,2332,2331,2328,2329,2325,2328,2329,2333,2335,2339,2339,2337,2338,2342,2345,2345,2344,2344,2346,2349,2353,2357,2357,2356,2354,2357,2359,2361,2360,2361,2360,2362,2361,2362,2363,2363,2366,2367,2369,2367,2370,2371,2371,2371,2372,2373,2374,2378,2379,2379,2381,2386,2391,2390,2388,2386,2387,2389,2388,2387,2383,2381,2375,2367,0,0,0,0,1602,1603,1600,1601,1609,0,2380,2384,2387,2390,2388,2388,2387,2388,2388,2389,2388,2387,2390,2395,2399,2396,2392,2390,2394,2395,2395,2395,2397,2401,2405,2406,2407,2407,2406,2407,2409,2413,2414,2418,2419,2424,2429,2432,2435,2435,2447,2466,2534,2559,2607,0,0,0,0,0,0,0,2695,2704,2703,2707,2711,0,0,0,2727,2721,0,0,0,0,0,0,0,0,0,0,0,0,0,0,0,0,0,0,0,0,0,0,0,0,1314,0,0,0,0,0,2269,0,2353,0,1301,0,0,0,0,0,0,0,0,0,0,0,0,0,0,0,0,0,0,0,0,0,0,0,0,0,2200,2206,2208,2204,2205,2199,2193,2181,0,0,0,0,0,0,0,0,0,0,0,0,0,0,0,0,0,0,0,0,0,0,0,0,0,0,0,0,0,0,0,0
0,0,0,0,0,0,0,0,0,1393,1408,1413,1414,1430,1444,1455,1454,1463,1478,1491,1494,1506,1520,1535,1541,1552,1560,1568,1572,1572,1575,1573,1573,1577,1584,1590,1585,1584,1583,1586,1586,1592,1589,1592,1592,1592,1583,1582,1582,1570,1435,1409,1398,1400,1409,2475,2490,2490,2494,2500,0,0,0,0,1731,1742,1746,1748,1748,1745,1747,1748,0,0,0,1844,1845,0,0,0,1556,1548,1544,1539,1542,1537,0,0,0,0,0,0,0,0,0,2408,2399,2402,2401,2401,2398,0,0,0,0,0,1505,1503,1508,1511,1518,1526,1540,1548,0,0,2414,2437,2448,2449,2441,2431,2428,2445,2453,2459,2467,2474,2477,2471,2421,2365,2362,2362,2361,2362,2366,2369,2371,2376,2380,2381,2370,2363,2358,2360,2360,2364,2366,2369,2371,2371,2356,2341,2337,2340,2339,2338,2324,2286,2268,2276,0,0,2474,2487,2486,2480,2473,2462,2449,2453,2458,2457,2445,2468,2468,0,0,0,2437,2453,2469,2469,2456,2450,2436,2427,2412,2407,2403,2400,2397,2387,2383,2380,2385,2383,2378,2375,2375,2374,2371,2368,2367,2365,2362,2363,2362,2363,2359,2354,2352,2355,2359,2355,2353,2354,2357,2353,2349,2347,2345,2339,2338,2339,2339,2340,2338,2337,2333,2330,2330,2333,2334,2336,2332,2336,2333,2336,2333,2333,2335,2336,2340,2339,2341,2340,2339,2337,2334,2337,2340,2342,2339,2336,2337,2342,2340,2338,2339,2341,2342,2338,2338,2339,2337,2333,2331,2335,2338,2340,2339,2337,2336,2333,2332,2330,2330,2331,2330,2332,2332,2334,2333,2337,2336,2338,2338,2344,2346,2346,2345,2347,2349,2350,2351,2355,2355,2354,2355,2358,2361,2363,2362,2362,2361,2361,2362,2364,2368,2365,2365,2365,2367,2366,2369,2370,2371,2371,2372,2373,2374,2379,2380,2380,2380,2385,2390,2392,2391,2390,2390,2390,2388,2388,2386,2385,2379,2363,0,0,0,0,1612,1611,1608,1607,1615,0,2378,2386,2387,2390,2389,2392,2390,2390,2388,2388,2389,2388,2393,2396,2399,2395,2394,2393,2394,2393,2395,2397,2399,2398,2402,2402,2407,2407,2409,2411,2410,2414,2416,2426,2425,2429,2428,2434,2432,2435,2445,2490,2555,2588,2607,2618,0,2656,0,0,0,2680,2695,2702,2703,2706,2711,2710,2723,2733,2729,2730,2732,0,0,0,0,0,0,0,0,0,0,0,0,0,0,0,0,0,0,0,0,0,0,1378,0,0,0,0,0,0,2278,2345,0,1312,0,0,0,0,2382,0,0,0,0,0,0,0,0,0,0,0,0,0,0,0,0,0,0,0,0,0,0,2198,2203,2207,2208,2203,2193,2178,0,0,0,0,0,0,0,0,0,0,0,0,0,0,0,0,0,0,0,0,0,0,0,0,0,0,0,0,0,0,0,0
