0,0,0,0,0,0,0,0,0,0,0,0,0,0,0,0,0,0,0,0,0,0,0,0,0,0,0,0,0,0,0,0,0,0,0,0,0,0,0,0,0,0,0,0,0,0,0,0,2334,2304,0,0,2425,2439,2450,2462,2470,2472,2475,2470,2472,2475,2486,2465,2453,2452,2462,2479,2485,2489,2491,2500,2510,2511,0,0,0,0,0,0,0,0,0,0,0,0,0,0,0,0,0,0,0,0,0,0,1965,1970,1978,1989,2007,2020,2032,2050,2063,2077,2090,2107,2119,2137,2157,2178,2191,2205,2220,2244,2262,2283,2296,2319,2329,2345,2364,2384,2405,2423,2440,2449,2454,0,0,0,0,0,0,0,0,0,0,0,0,0,0,2415,2427,2434,2432,2421,2417,0,0,2425,0,0,0,0,0,0,0,0,0,0,0,0,0,2478,2458,0,0,0,0,0,0,0,0,0,0,2395,0,0,2423,2410,2422,2431,2445,0,0,0,0,0,0,0,0,0,0,2448,2459,0,0,2415,2418,2438,2456,2446,2447,2448,2433,2458,2463,2465,2467,2473,0,0,0,0,0,0,0,0,0,0,0,0,0,0,2504,2511,2513,2509,2507,2505,2506,2508,2513,2511,2495,2509,2522,2517,2485,0,0,2462,2428,2438,2476,0,0,0,0,0,2489,2504,2507,2487,2458,2453,2451,2457,2456,2456,2446,2439,2430,0,0,0,0,0,2432,2424,2423,2428,2431,2432,2421,2412,2412,2429,2430,2402,0,0,0,0,0,0,0,0,0,2086,2098,2119,2138,2155,2160,2140,2118,2102,2088,2067,2053,2046,2035,2038,2035,2033,2025,2030,2029,2024,2015,2011,2012,2014,2006,2006,2003,2008,2008,2014,2021,2010,1955,1868,1884,0,0,0,0,0,0,0,0,0,0,0,0,0,0,0,0,0,0,0,0,0,0,0,0,0,0,0,0,0,0,0,0,0,0,0,0,0,0,0,0,0,0,0,0,0,0,0,0,0,0,0,0,0,0,0,0,0,0,0,0,0,0,0,0,0,0,0,0,0,0,0,0,0,0,0,0,0,0,0,0,0,0,0,0,0,0,0,0,0,0,1441,1455,0,0,0,0,0,0,0,0,0,1476,1487,1510,1500,1456,0,1389,1381,1368,1371,1350,1367,1343,1330,1329,0,0,0,0,0,0,0,0,0,0,0,0,0,0,0,0,0,0,0,0,0,0,0,0,0,0,0,0,0,0,0,0,0,2137,2155,2161,2161,2157,2144,0,0,0,0,0,0,0,0,0,0,0,0,0,0,0,0,0,0,0,0,0,0,0,0,0,0,0,0,0,0
0,0,0,0,0,0,0,0,0,0,0,0,0,0,0,0,0,0,0,0,0,0,0,0,0,0,0,0,0,0,0,0,0,0,0,0,0,0,0,0,0,0,0,0,0,0,0,0,0,2295,0,0,2408,2431,2449,2458,2472,2470,2468,2465,2469,2473,2473,2462,2452,2449,2463,2470,2463,2457,0,2491,2491,2482,0,0,2483,0,0,0,0,0,0,0,0,0,0,0,0,0,0,0,0,0,0,0,1980,1969,1976,1989,2006,2018,2032,2048,2064,2080,2093,2109,2119,2136,2156,2176,2191,2203,2220,2240,2262,2281,2292,2309,2322,2343,2360,2385,2404,2425,2440,2451,2427,0,0,0,0,3506,3505,0,0,0,0,2411,2387,2411,2410,2419,2430,0,2441,0,2426,0,0,0,0,0,0,0,0,0,0,0,2452,2454,2448,2452,2477,2481,2472,2440,2441,2419,2440,2432,0,2408,2376,0,0,0,0,0,0,0,0,0,0,0,0,0,0,0,0,0,0,0,0,2400,2450,2462,2438,2409,0,2433,2457,2444,2448,0,2469,2476,2464,2468,2476,2481,0,0,0,0,0,0,2450,0,0,2475,2473,2451,2460,2475,2509,2509,2512,2503,2503,2500,2506,2507,2514,2509,0,0,0,0,0,0,0,0,0,0,0,0,0,0,0,0,0,2514,2515,2495,2470,2463,2456,2455,2453,2450,2445,2444,2431,2424,2470,0,0,0,2441,2433,2425,2432,2429,2426,2408,2411,2402,2423,2418,2406,0,0,0,0,0,0,0,0,0,2077,2095,2111,2142,2168,2174,2164,2140,2127,2108,2091,2076,2061,2044,2043,2041,2041,2031,2030,2034,2032,2029,2022,2022,2016,2012,2014,2018,2020,2017,2016,2026,2018,0,1890,1888,1905,0,0,0,0,0,0,0,0,0,0,0,0,0,0,0,0,0,0,0,0,0,0,0,0,0,0,0,0,0,0,0,0,0,0,0,0,0,0,0,0,0,0,0,0,0,0,0,0,0,0,0,0,0,0,0,0,0,0,0,0,0,0,0,0,0,0,0,0,0,0,0,0,0,0,0,0,0,0,0,0,0,0,0,0,0,0,0,0,0,1456,0,0,0,0,0,0,0,0,0,0,1477,1475,0,1465,1463,1425,1434,1367,1359,1352,1304,1342,1329,0,0,0,0,0,0,0,0,0,0,0,0,0,0,0,0,0,0,0,0,0,0,0,0,0,0,0,0,0,0,0,0,0,0,0,2141,2157,2161,2159,2156,2142,2107,0,0,0,0,0,0,0,0,0,0,0,0,0,0,0,2357,0,0,0,0,0,0,0,0,0,0,0,0,0
0,1334,0,0,0,0,0,0,0,0,0,0,0,0,0,0,0,0,0,0,0,0,0,0,0,0,0,0,0,0,0,0,0,0,0,0,0,0,0,0,0,0,0,0,0,0,0,0,0,0,0,0,2400,2440,2459,2465,2475,2478,2467,2454,2465,2474,2485,2471,2454,2453,0,2573,0,0,0,0,0,0,0,0,0,0,0,0,0,0,0,0,0,0,0,0,0,0,0,0,0,0,0,0,1957,1967,1976,1993,2005,2016,2029,2049,2062,2079,2091,2111,2122,2138,2157,2175,2193,2210,2228,2245,2261,2279,2288,2305,2324,2346,2368,2384,2407,2425,2444,2450,2440,0,3523,3525,3523,0,0,0,0,0,0,0,0,0,0,0,0,0,0,0,0,0,0,0,0,0,0,0,0,0,0,2406,2455,2439,2440,2441,2476,2483,2473,2449,2443,2445,0,0,0,0,0,0,0,0,2447,0,2446,2429,2402,0,0,0,2435,0,0,0,0,0,0,0,0,0,0,0,0,0,0,0,0,0,0,0,0,0,0,2460,2485,2489,0,0,0,0,0,0,0,0,0,0,2475,2477,0,0,0,0,0,0,0,2491,2501,2514,2516,2509,2491,2481,2500,2486,2459,2460,2459,2450,2458,2485,2494,2509,2489,2478,0,0,2463,2508,2519,2502,2479,2465,2456,2448,2447,2445,2448,2447,2447,2433,2442,0,0,0,2443,2439,2426,2434,2432,2423,2410,2415,2413,2409,2406,2399,2389,0,0,0,0,0,0,0,0,0,2099,2112,2125,2159,2171,2169,2153,2134,2127,2116,2101,2081,2062,2056,2052,2052,2042,2035,2034,2039,2041,2040,2031,2031,2026,2031,2029,2038,2033,2034,2038,2040,0,1904,1878,1873,0,0,0,0,0,0,0,0,0,0,0,0,0,0,0,0,0,0,0,0,0,0,0,0,0,0,0,0,0,0,0,0,0,0,0,0,0,0,0,0,0,0,0,0,0,0,0,0,0,0,0,0,0,0,0,0,0,0,0,0,0,0,0,0,0,0,0,0,0,0,0,0,0,0,0,0,0,0,0,0,0,0,0,0,0,0,0,0,0,0,0,0,0,0,0,0,0,0,0,0,1483,0,1459,1425,1439,0,1414,1354,1325,0,1309,1325,1317,0,0,0,0,0,0,0,0,0,0,0,0,0,0,0,0,0,0,0,0,0,0,0,0,0,0,0,0,0,0,0,0,0,0,0,2143,2157,2161,2157,2153,2140,0,0,0,0,0,0,0,0,0,0,0,0,0,0,0,0,0,0,0,0,0,0,0,0,0,0,0,0,0,0
0,0,0,0,0,0,0,0,0,0,0,0,0,0,0,0,0,0,0,0,0,0,0,0,0,0,0,0,0,0,0,0,0,0,0,0,0,0,0,0,0,0,0,0,0,0,0,0,0,0,0,2377,2418,2449,2466,2471,2476,2469,2466,2455,2462,2469,2474,2455,2454,2458,2479,2502,2500,2511,0,0,0,0,0,2515,2508,0,0,0,0,0,0,0,0,0,0,0,0,0,0,0,0,0,0,0,0,1964,1974,1991,2001,2014,2032,2048,2066,2078,2094,2108,2125,2142,2157,2172,2192,2211,2230,2245,2263,2277,2288,2301,2328,2348,2367,2382,2403,2423,2444,2451,2452,0,0,0,0,0,0,0,0,0,0,0,0,0,0,2446,2430,0,2438,2429,2432,2410,0,0,0,0,0,0,0,0,0,0,0,0,0,2423,0,2483,2471,0,0,0,0,0,0,0,0,0,0,0,0,0,0,0,0,0,2411,0,0,0,0,0,0,0,0,0,0,0,2457,2445,0,2452,0,0,2441,2444,2460,2460,2455,2458,2462,2471,2502,2496,2457,2452,0,0,0,0,0,0,0,0,2465,0,1693,1693,1696,1696,0,0,0,0,2502,2517,2521,2515,2500,2470,2473,2488,2475,2468,2454,2451,2456,2485,2511,2506,2488,2465,2465,2463,2470,2492,2504,2492,2470,2455,2448,2442,2445,2444,2448,2448,2452,2464,2452,2406,0,2437,2456,2438,2432,2433,2428,2430,2423,2430,2426,2417,2400,2405,0,0,0,0,0,0,0,0,0,0,2126,2109,2122,2150,2170,2176,2161,2142,2142,2138,2127,2108,2091,2076,2063,2060,2053,2047,2043,2043,2052,2050,2055,2045,2039,2035,2036,2047,2048,2054,2061,2067,0,1927,1835,1854,0,0,0,0,0,0,0,0,0,0,0,0,0,0,0,0,0,0,0,0,0,0,0,0,0,0,0,0,0,0,0,0,0,0,0,0,0,0,0,0,0,0,0,0,0,0,0,0,0,0,0,0,0,0,0,0,0,0,0,0,0,0,0,0,0,0,0,0,0,0,0,0,0,0,0,0,0,0,0,0,0,0,0,0,0,0,0,0,0,0,0,0,0,0,0,0,0,0,0,0,0,0,0,1437,1438,1413,1393,1354,1394,1400,1351,1342,1327,1332,0,0,0,0,0,0,0,0,0,0,0,0,0,0,0,0,0,0,0,0,0,0,0,0,0,0,0,0,0,0,0,0,0,0,2145,2160,2163,2158,2155,2139,0,0,0,0,0,0,0,0,0,0,0,0,0,0,0,0,0,0,0,0,0,0,0,0,0,0,0,0,0,0
0,0,0,0,0,0,0,0,0,0,0,0,0,0,0,0,0,0,0,0,0,0,0,0,0,0,0,0,0,0,0,0,0,0,0,0,0,0,0,0,0,0,0,0,0,0,0,0,0,0,0,2410,2438,2454,2471,2473,2473,2464,2466,2461,2467,2473,2476,2458,2456,2460,2485,2497,2501,2488,2487,2486,0,2494,2494,2476,0,0,0,0,0,0,0,0,0,0,0,0,0,0,0,0,0,0,0,1901,1920,1939,1955,1969,1986,2010,2032,2054,2069,2082,2092,2105,2121,2139,2154,2171,2195,2215,2232,2246,2262,2274,2285,2303,2328,2351,2376,2389,2408,2418,2437,2448,0,0,0,0,0,0,0,0,0,0,0,0,0,0,2415,0,2438,2426,2432,2432,2434,0,2420,0,0,0,0,0,0,0,0,0,2425,0,2432,2436,2469,2478,2468,2419,0,0,2415,2422,2426,0,0,0,2423,0,0,0,0,0,0,0,0,0,0,0,0,0,0,0,0,0,2401,0,0,0,0,0,0,2436,2438,2440,2442,2458,2455,2454,2459,2488,2499,2499,2485,0,2453,2436,0,0,0,0,0,0,0,1691,1692,1693,1695,1694,1692,1692,1696,1702,0,2516,2518,2517,2514,0,0,0,0,0,0,0,0,0,2501,2495,2469,2456,2459,2455,2461,2462,2479,2469,2462,2452,2448,2443,2448,2453,2453,2449,2456,2466,2458,0,0,2438,2454,2452,2440,2430,2423,2425,2434,2437,2433,2427,2417,0,0,0,0,0,0,0,0,0,0,0,0,2122,2127,2141,2157,2173,2174,2166,2155,2159,2150,2129,2113,2093,2074,2068,2066,2063,2061,2059,2060,2063,2063,2063,2061,2051,2050,2057,2077,2083,2093,2092,0,1912,1866,1826,0,0,0,0,0,0,0,0,0,0,0,0,0,0,0,0,0,0,0,0,0,0,0,0,0,0,0,0,0,0,2442,2454,2447,2401,0,0,0,0,0,0,0,0,0,0,0,0,0,0,0,0,0,0,0,0,0,0,0,0,0,0,0,0,0,0,0,0,0,0,0,0,0,0,0,0,0,0,0,0,0,0,0,0,0,0,0,0,0,0,0,1493,0,0,0,0,0,0,0,0,0,0,0,0,1468,1463,1426,1404,1365,1366,1423,1379,1400,1372,1361,0,0,0,0,0,0,0,0,0,0,0,0,0,0,0,0,0,0,0,0,0,0,0,0,0,0,0,0,0,0,0,0,0,0,0,2152,2159,2165,2160,2158,2138,2076,0,0,0,0,0,0,0,0,0,0,0,0,0,0,0,0,0,0,0,0,0,0,0,0,0,0,0,0,0
0,0,0,0,0,0,0,0,0,0,0,0,0,0,0,0,0,0,0,0,0,0,0,0,0,0,0,0,0,0,0,0,0,0,0,0,0,0,0,0,0,0,0,0,0,0,0,0,0,0,0,0,2426,2457,2467,2472,2471,2468,2476,2480,2484,2479,2513,2477,2452,2456,0,0,2627,0,2666,0,0,0,0,0,0,0,0,0,0,0,0,0,0,0,0,0,0,0,0,0,0,0,0,1859,1882,1898,1907,1915,1939,1978,2022,2047,2067,2079,2090,2099,2113,2131,2150,2170,2194,2211,2227,2244,2264,2276,2291,2304,2329,2350,2371,2392,2409,2418,2434,2447,2452,0,3534,3530,3524,3526,0,0,0,0,0,0,0,0,0,0,0,0,0,0,0,0,0,0,0,0,0,0,0,0,0,0,0,2422,0,2434,2457,2475,2464,2429,2382,2422,0,2433,0,0,2433,0,0,2473,0,0,0,0,0,2443,2436,2441,2441,2455,2460,2436,2438,0,0,0,2383,0,0,0,0,0,0,0,0,0,0,0,0,0,0,0,2498,2483,0,0,0,0,0,0,0,0,0,0,0,1690,1691,1693,1695,1694,1694,1694,1695,1700,0,2506,2513,2517,2519,2508,2459,2462,2466,2484,2495,2490,2491,2494,2487,2481,2464,2448,2449,2446,2451,2453,2467,2468,2466,2451,2444,2440,2445,2448,2447,2442,2449,2459,2463,2413,0,2441,2458,2455,2449,2438,2424,2427,2426,2428,2429,2436,2415,0,0,0,0,0,0,0,0,0,0,0,0,0,2147,2140,2152,2176,2192,2194,2185,2175,2170,2156,2136,2121,2100,2085,2077,2070,2071,2066,2069,2069,2073,2070,2075,2083,2072,2090,2116,2124,2113,2112,0,0,1888,1859,0,0,0,0,0,0,0,0,0,0,0,0,0,0,0,0,0,0,0,0,0,0,0,0,0,0,0,2426,2426,2445,2465,2465,2457,2437,2407,2416,0,2483,2481,2459,0,0,0,0,0,0,0,0,0,0,0,0,0,0,0,0,0,0,0,0,0,0,0,0,0,0,0,0,0,0,0,0,0,0,0,0,0,0,0,1378,1401,0,0,0,0,0,0,0,0,0,0,0,0,0,0,0,0,0,0,0,1448,1470,1463,1446,1436,0,1359,1326,1416,1370,1364,0,1372,1370,0,0,0,0,0,0,0,0,0,0,0,0,0,0,0,0,0,0,0,0,0,0,0,0,0,0,0,0,0,0,0,0,0,2146,2154,2161,2168,2168,2163,2143,0,0,0,0,0,0,0,0,0,0,0,0,0,0,0,0,0,0,0,0,0,0,0,0,0,0,0,0,0,0
0,0,0,0,0,0,0,0,0,0,0,0,0,0,0,0,0,0,0,0,0,0,0,0,0,0,0,0,0,0,0,0,0,0,0,0,0,0,0,0,0,0,0,0,0,0,0,0,0,2285,0,2341,2429,2452,2470,2473,2468,2461,2464,2474,2478,2472,2464,2457,2455,2452,2468,2478,2476,2494,0,0,2507,0,0,2490,0,0,0,0,0,0,0,0,0,0,0,0,0,0,0,0,0,1841,1846,1850,1858,1863,1878,1888,1892,1904,0,2037,2062,2076,2083,2092,2106,2125,2149,2169,2191,2206,2222,2236,2254,2268,2285,2300,2322,2344,2365,2382,2404,2420,2435,2451,2450,0,0,0,0,0,0,0,0,0,0,0,0,0,0,0,2414,0,2401,2404,0,2367,2370,2372,0,0,0,0,0,0,0,0,0,0,0,0,0,2465,2452,0,0,0,0,0,0,0,0,0,0,0,0,0,0,0,0,2404,2418,2428,2438,2457,2444,2431,0,2448,0,0,0,2463,2462,2454,2426,0,2438,0,0,0,0,0,2465,2443,2433,2467,2489,2489,0,2452,2442,0,0,0,0,0,0,0,0,1691,1692,1694,1696,1697,1697,1697,1697,1703,0,2501,2513,2514,2518,2490,0,2451,2464,2495,2505,2515,2503,2494,2479,2469,2462,2446,2451,2446,2452,2449,2463,2469,2465,2448,2443,2443,2445,2444,2444,2436,2437,2444,2463,2439,2414,2437,2447,2452,2446,2440,2430,2429,2427,2426,2428,2432,2414,0,0,0,0,0,0,0,0,0,0,0,2380,2410,0,2157,2139,2162,2194,2207,2204,2196,2187,2177,2166,2151,2134,2111,2098,2095,2098,2094,2092,2095,2102,2094,2098,2112,2121,2122,2130,2134,2124,2115,0,0,1873,1869,0,0,0,0,0,0,0,0,0,0,0,0,0,0,2500,0,0,0,0,0,0,0,0,0,0,0,2436,2449,2449,2457,2466,2471,2468,2461,2453,2452,2473,2484,2472,2461,0,0,0,0,0,0,0,0,0,0,0,0,0,0,0,0,0,0,0,0,0,0,0,0,0,0,0,0,0,0,0,0,0,0,0,0,0,0,0,0,0,0,0,0,0,0,0,0,0,0,0,0,0,0,0,0,0,0,0,0,1459,1460,1460,1448,1401,1401,1376,1311,1355,1352,0,1360,0,1326,0,0,0,0,0,0,0,0,0,0,0,0,0,0,0,0,0,0,0,0,0,0,0,0,0,0,0,0,0,0,0,0,0,0,2157,2164,2168,2167,2162,2142,0,0,0,0,0,0,0,0,0,0,0,0,0,0,0,0,0,0,0,0,0,0,0,0,0,0,0,0,0,0
0,0,0,0,0,0,0,0,0,0,0,0,0,0,0,0,0,0,0,0,0,0,0,0,0,0,0,0,0,0,0,0,0,0,0,0,0,0,0,0,0,0,0,0,0,0,0,0,0,2370,2298,2306,0,2454,2469,2475,2472,2462,2460,2467,2481,2482,2478,2463,2456,2455,2466,2476,2472,2485,2508,2508,2490,0,0,0,2481,2476,0,0,0,0,0,0,0,0,0,0,0,0,0,0,0,1837,1846,1848,1852,1855,1875,1905,1905,1877,1898,0,2060,2073,2073,2075,0,0,0,2155,0,2188,2204,0,0,0,0,0,0,2328,2346,2361,2388,2417,2434,0,0,0,0,0,0,0,0,0,0,0,0,0,0,0,0,0,0,2371,0,0,2397,2394,2381,0,0,0,0,0,0,0,0,0,0,0,0,0,2464,2468,2456,0,2413,2424,2397,0,0,0,0,0,0,2304,2298,2282,0,0,0,2325,2305,2299,0,2317,2327,2342,2359,0,0,0,0,0,0,2381,0,0,0,0,0,0,0,0,0,0,2411,2434,2466,0,0,2438,2465,2452,2451,2461,2459,0,0,0,0,1692,1693,1694,1696,1697,1699,1698,1699,0,0,2505,2514,2518,2520,0,0,2472,2474,2488,2500,2506,2497,2490,2475,2467,2455,2444,2445,2446,2449,2447,2448,2453,2451,2438,2437,2446,2448,2445,2441,2434,2434,2439,2449,2447,2422,2426,2440,2444,2442,2442,2433,2434,2422,2419,2414,2414,2424,0,0,0,0,0,0,0,0,0,0,2397,2422,2443,2434,0,2157,2150,2169,2200,2206,2210,2202,2198,2186,2181,2160,2140,2132,2133,2137,2135,2130,2134,2134,2125,2121,2128,2145,2144,2132,2133,2127,0,0,0,1860,1856,0,0,0,0,0,0,0,0,0,0,0,0,0,0,0,2602,2612,2612,2595,2576,2545,2491,2460,0,2430,2446,2457,2464,2457,2460,2463,2470,2470,2469,2468,2467,2469,2465,2453,2434,0,0,0,0,0,0,0,0,0,0,0,0,0,0,0,0,0,0,0,0,0,0,0,0,0,0,0,0,0,0,0,0,0,0,0,0,0,0,0,0,0,0,0,0,0,0,0,0,0,0,0,0,0,0,0,0,0,0,0,0,0,0,1425,1422,1426,1394,1394,0,1356,1354,0,0,0,1306,0,0,0,0,0,0,0,0,0,0,0,0,0,0,0,0,0,0,0,0,0,0,0,0,0,0,0,0,0,0,0,0,0,0,2155,2164,2170,2169,2159,2140,2050,0,0,0,0,0,0,0,0,0,0,0,0,0,0,0,0,0,0,0,0,0,0,0,0,0,0,0,0,0
0,1320,0,0,0,0,0,0,0,0,0,0,0,0,0,0,0,0,0,0,0,0,0,0,0,0,0,0,0,0,0,0,0,0,2158,0,0,0,0,0,0,0,0,0,0,0,0,0,0,2356,2357,0,0,2459,2467,2474,2472,2469,2464,2471,2478,2488,2498,2487,2458,2459,2497,2512,2537,0,0,0,0,0,0,0,0,0,0,0,0,0,0,0,0,0,0,0,0,0,0,0,0,1843,1846,1848,1849,1855,1888,1945,1947,1879,1881,0,2057,2065,2050,0,0,0,0,0,0,0,1812,0,0,0,0,0,0,0,0,0,0,0,1736,0,0,0,0,0,0,0,0,0,0,0,0,0,0,0,0,0,0,0,0,0,0,0,0,0,0,0,0,0,0,0,0,0,0,0,0,0,0,0,0,0,0,2415,2390,0,0,0,2262,2263,2270,2278,2282,2277,2274,2280,2284,2287,2279,2281,2284,2294,2301,2307,2312,2306,2299,2295,2296,2303,2311,2316,2307,2303,2300,2302,2297,2303,2315,2302,2307,2333,2347,2349,2381,2369,2336,0,0,0,2388,0,2401,0,0,0,0,1699,1696,1698,1699,1700,1701,1701,1701,0,0,2490,2500,2500,2495,2495,2495,2488,2470,2468,2474,2483,2472,2468,2458,2448,2439,2438,2441,2438,2435,2430,2432,2436,2433,2429,2436,2452,2451,2446,2442,2442,2443,2444,2440,2426,0,2420,2434,2438,2431,2430,2434,2432,2419,2415,2411,2404,2406,0,0,0,0,0,0,0,0,0,0,2432,2439,2457,2447,0,0,2162,2160,2182,2195,2205,2207,2209,2204,2197,2189,2169,2160,2164,2167,2162,2157,2149,2150,2150,2144,2144,2151,2155,2144,2125,0,0,0,0,0,1839,0,0,0,0,0,0,0,0,0,0,0,0,0,2535,2576,2608,2614,2610,2591,2571,2513,2446,2436,2433,2445,2460,2467,2468,2460,2461,2466,2475,2477,2473,2469,2461,2447,2435,0,0,0,0,0,0,0,0,0,0,0,0,0,0,0,0,0,0,0,0,0,0,0,0,0,0,0,0,0,0,0,0,0,0,0,0,0,0,0,0,0,0,0,0,0,0,0,0,0,0,0,1441,0,0,0,0,0,0,0,0,0,0,0,0,1420,1401,1412,1394,1370,1381,1372,1371,0,0,1373,1346,0,0,0,0,0,0,0,0,0,0,0,0,0,0,0,0,0,0,0,0,0,0,0,0,0,0,0,0,0,0,0,0,0,0,2156,2164,2165,2163,2155,2140,0,0,0,0,0,0,0,0,0,0,0,0,0,0,0,0,0,0,0,0,0,0,0,0,0,0,0,0,0,0
0,0,0,0,0,0,0,0,0,0,0,0,0,0,0,0,0,0,0,0,0,0,0,0,0,0,0,0,0,0,0,0,0,2150,2182,2202,0,0,0,0,0,0,0,0,0,0,0,0,0,0,2338,0,2443,2456,2463,2463,2470,2471,2468,2466,2479,2486,2487,2468,2461,2468,2487,2494,2488,2490,2488,2477,2466,2473,0,0,2482,2478,2476,0,0,0,0,0,0,0,0,0,0,0,0,0,1844,1850,1850,1851,1848,1854,1879,1923,1930,1867,1870,0,0,0,0,1827,1809,1803,1793,1785,1775,1775,1770,1768,1763,1763,1768,1772,1769,1765,1752,1739,1742,1757,1762,1767,1768,0,0,0,0,0,1768,1772,1773,0,0,0,0,0,0,0,0,0,0,0,0,0,0,0,0,0,0,0,0,0,1770,0,0,0,0,0,1768,0,1732,1734,0,0,0,0,0,0,0,0,0,0,0,0,0,0,0,0,0,2269,2273,2280,2289,2289,2287,0,0,2275,2272,2275,2280,2290,2277,2270,2276,2281,2279,2276,2277,2278,2289,2300,2303,2306,2303,2301,2295,2296,2297,2297,2310,2320,2323,2320,0,0,0,1708,1707,1705,1707,1706,1708,1706,1706,0,2404,0,0,0,2402,0,0,0,2425,2419,2415,2410,2416,2407,2410,2397,2391,2403,2415,2412,2410,2412,2414,2420,2413,2407,2418,2438,2435,2434,2435,2443,2447,2445,2428,2397,0,2403,2428,2429,2426,2427,2431,2422,2403,2400,2405,2400,2374,0,0,0,0,0,0,0,0,0,2424,2446,2441,2441,2427,2426,2407,2395,2183,2180,2176,2175,2187,2200,2210,2215,2206,2197,2191,2183,2183,2173,2161,2152,2154,2158,2159,2156,2155,2154,0,0,0,0,0,0,0,1834,1832,0,0,0,0,0,0,0,0,0,0,0,0,0,2561,2590,2601,0,0,2515,2453,2433,2437,2448,2461,2470,2472,2467,2462,2462,2469,2474,2478,2472,2466,2453,2437,0,0,0,0,0,0,0,0,0,0,0,0,0,0,0,0,0,0,0,0,0,0,0,0,0,0,0,0,0,0,0,0,0,0,0,0,0,0,0,0,0,0,0,0,0,0,0,0,0,0,0,0,0,0,0,0,0,0,0,0,0,0,0,0,0,1427,1404,1396,1364,1387,1377,1376,1377,0,1366,1377,1386,1387,0,0,0,0,0,0,0,0,0,0,0,0,0,0,0,0,0,0,0,0,0,0,0,0,0,0,0,0,0,0,0,0,0,2159,2162,2163,2161,2155,2140,0,0,0,0,0,0,0,0,0,0,0,0,0,0,0,0,0,0,0,0,0,0,0,0,0,0,0,0,0,0
0,1257,0,0,0,0,0,0,0,0,0,0,0,0,0,0,0,0,0,0,0,0,0,0,0,0,0,0,0,0,0,0,0,0,2197,0,2198,0,0,0,0,0,0,0,0,0,0,0,0,0,0,2406,2456,2474,2466,2468,2476,2482,2477,2475,2477,2492,2486,2475,2468,2478,2492,2493,2482,2496,2499,0,2469,2472,2485,0,0,0,2470,0,0,0,0,0,0,1768,1774,1772,1782,1798,1817,1830,1843,1851,1849,1852,1846,1850,1859,1869,1863,1853,1857,1863,1859,1844,1823,1793,1782,1778,1768,1767,1769,1767,1763,1758,1757,1759,1760,1764,1760,1760,1747,1746,1739,1752,1756,1759,1758,1760,1760,1762,1761,1763,1766,1769,1771,1768,1766,1764,1764,1766,1764,1765,1761,1762,1765,1772,1775,1773,1768,1767,1766,1767,1764,1767,1773,1781,1783,1778,1780,1780,1781,1776,1773,1775,1780,1778,1775,1780,1787,0,0,0,0,0,0,0,0,0,0,0,0,0,0,0,0,0,0,0,0,0,0,0,0,0,0,0,0,0,0,0,0,0,0,0,0,0,0,0,0,0,0,0,0,0,0,0,0,0,0,0,0,0,1752,1749,1743,1744,1737,0,0,0,2308,2326,2316,2308,2311,2317,2324,2333,2343,2330,2324,0,2319,2323,2336,2336,2336,2342,2352,2353,2367,2378,2388,2393,2374,2365,2391,2406,2397,2392,2401,2415,2416,2424,2387,2355,2337,2373,2401,2410,2408,2414,2412,2395,2381,2385,2399,2398,2364,0,0,0,0,0,0,0,0,0,2421,2423,2422,2420,2414,2418,2407,0,0,0,2167,2149,2149,2167,2180,2198,2200,2205,2198,2190,2186,2172,2161,2145,2149,2154,2163,2168,2164,0,0,0,0,0,0,0,0,1844,1845,0,0,0,0,0,0,0,0,0,0,0,0,0,0,0,0,0,0,2444,2441,2440,2447,2453,2463,2469,2470,2466,2465,2466,2472,2479,2481,2472,2458,2444,0,0,0,0,0,0,0,0,0,0,0,0,0,0,0,0,0,0,0,0,0,0,0,0,0,0,0,0,0,0,0,0,0,0,0,0,0,0,0,0,0,0,0,0,0,0,0,0,0,0,0,0,0,0,0,0,0,0,0,0,0,0,0,0,0,0,1451,1390,1435,1416,1381,1353,1316,0,0,1376,1373,1379,0,0,0,0,0,0,0,0,0,0,0,0,0,0,0,0,0,0,0,0,0,0,0,0,0,0,0,0,0,0,0,0,0,0,2158,2167,2165,2164,2159,2147,0,0,0,0,0,0,0,0,0,0,0,0,0,0,0,0,0,0,0,0,0,0,0,0,0,0,0,0,0,0
0,0,0,0,0,0,0,0,0,0,0,0,0,0,0,0,0,0,0,0,0,0,0,0,0,0,0,0,0,0,0,0,0,0,0,0,0,0,0,0,0,0,0,0,0,0,0,0,0,0,0,2423,2461,2477,2477,2471,2480,2485,2482,2475,2485,2493,2522,2474,2464,2484,2599,0,0,0,0,0,0,0,0,0,0,0,0,0,0,0,0,0,1756,1758,1766,1769,1781,1797,1812,1825,1836,1848,1850,1853,1848,1846,1843,1841,1843,1842,1850,1849,1845,1823,1810,1791,1773,1769,1762,1766,1766,1765,1761,1759,1760,1758,1756,1755,1750,1751,1747,1744,1737,1753,1756,1758,1758,1760,1762,1763,1762,1762,1765,1768,1769,1768,1765,1763,1764,1766,1765,1765,1763,1763,1766,1769,1772,1771,1771,1770,1769,1770,1771,1772,1774,1777,1780,1777,1777,1775,1774,1772,1771,1775,1778,1778,1779,1780,1784,1782,1784,1782,1782,1782,1783,1785,1785,1792,1794,1793,1794,1796,1796,1794,1798,1801,1802,1798,1799,1796,1800,1803,1807,0,0,0,0,0,0,0,0,0,0,0,0,0,0,0,0,0,0,0,0,0,0,0,0,0,0,0,1812,1810,1804,1796,1798,1799,0,0,0,0,0,0,0,0,0,0,0,0,0,0,0,0,0,0,0,0,0,0,0,0,0,2324,2323,0,0,0,2355,2345,2338,2335,2341,2348,2370,2367,2334,2314,0,0,0,0,0,0,2339,2313,2318,2331,2353,2349,0,0,0,0,0,0,0,0,0,0,0,0,0,0,2391,2372,2353,0,0,0,0,2141,2135,2134,2143,2140,2153,2164,2179,2171,2168,2154,2148,2144,2154,2159,2171,0,0,0,0,0,0,0,0,0,0,1844,1862,0,0,0,0,0,0,0,0,0,0,0,0,0,0,0,2398,2409,2437,2436,2439,2442,2447,2451,2456,2459,2458,2458,2461,2466,2470,2476,2474,2465,2450,2435,0,0,0,0,0,0,0,0,0,0,0,0,0,0,0,0,0,0,0,0,0,0,0,0,0,0,0,0,0,0,0,0,0,0,0,0,0,0,0,0,0,0,0,0,0,0,0,0,0,0,0,0,0,0,0,0,0,0,0,0,0,0,0,0,0,0,1438,1421,1387,1420,1384,1353,0,1301,1402,1391,1390,1375,0,0,0,0,0,0,0,0,0,0,0,0,0,0,0,0,0,0,0,0,0,0,0,0,0,0,0,0,0,0,0,0,0,0,2159,2166,2166,2164,2161,2148,0,0,0,0,0,0,0,0,0,0,0,0,0,0,0,0,0,0,0,0,0,0,0,0,0,0,0,0,0,0
0,0,0,0,0,0,0,0,0,0,0,0,0,0,0,0,0,0,0,0,0,0,0,0,0,0,0,0,0,0,0,0,0,0,0,0,0,0,0,0,0,0,0,0,0,0,0,0,0,0,2337,2445,2459,2466,2469,2465,2475,2481,2478,2480,2481,2482,2469,2456,2455,2460,2467,2477,2464,2451,0,0,0,0,0,1864,1874,1879,1879,1872,1873,0,0,1737,1743,1748,1756,1758,1768,1783,1808,1820,1834,1844,1847,1850,1846,1841,1840,1839,1843,1844,1851,1848,1842,1818,1800,1783,1767,1767,1765,1766,1763,1761,1758,1758,1758,1758,1755,1753,1747,1744,1742,1742,1727,1746,1759,1762,1762,1764,1765,1763,1762,1764,1768,1770,1771,1768,1765,1765,1766,1769,1769,1768,1767,1768,1771,1772,1773,1772,1773,1773,1774,1772,1771,1770,1773,1775,1779,1777,1778,1776,1775,1774,1774,1777,1778,1778,1778,1782,1784,1783,1782,1782,1781,1781,1779,1781,1780,1784,1784,1784,1784,1786,1787,1788,1790,1792,1793,1788,1789,1788,1793,1793,1797,1798,1800,1797,1794,1797,1800,1800,1796,1795,1798,1798,1801,1801,1802,1802,1801,1805,1804,1807,1807,1812,1814,1814,1808,1810,1809,1810,1809,1811,1812,1809,1809,1814,1821,1827,0,0,0,0,0,0,0,0,0,0,0,0,0,0,0,0,0,0,0,0,0,0,0,0,0,0,0,0,0,0,0,0,0,0,0,0,0,0,0,0,0,0,0,0,0,0,0,0,0,0,0,0,0,0,0,0,0,0,0,0,0,0,0,0,0,0,0,0,0,0,0,0,0,0,0,0,0,0,0,0,0,0,2114,2121,2137,2153,0,0,0,0,0,0,0,0,0,0,0,1855,1859,0,0,0,0,0,0,0,0,0,0,0,0,0,0,0,0,2384,2410,2423,2408,2418,2423,2429,2436,2438,2441,2440,2441,2447,2451,2458,2448,2431,2412,0,0,0,0,0,0,0,0,0,0,0,0,0,0,0,0,0,0,0,0,0,0,0,0,0,0,0,0,0,0,0,0,0,0,0,0,0,0,0,0,0,0,0,0,0,0,0,0,0,0,0,0,0,0,0,0,0,0,0,0,0,0,0,0,0,0,0,1436,1428,1426,1384,1371,1415,0,0,1377,1422,1413,0,0,0,0,0,0,0,0,0,0,0,0,0,0,0,0,0,0,0,0,0,0,0,0,0,0,0,0,0,0,0,0,0,0,2151,2160,2167,2166,2168,2165,2157,0,0,0,0,0,0,0,0,0,0,0,0,0,0,0,0,0,0,0,0,0,0,0,0,0,0,0,0,0,0
0,0,0,0,0,0,0,0,0,0,0,0,0,0,0,0,0,0,0,0,0,0,0,0,0,0,0,0,0,0,0,0,0,0,0,0,0,0,0,0,0,0,0,0,0,0,0,0,0,0,0,2403,2450,2468,2461,2478,2480,2479,2483,2481,2485,2478,2474,2458,2443,2450,0,0,0,0,0,0,0,0,1847,1856,1861,1862,1864,1867,1870,1864,1797,1732,1736,1743,1749,1752,1758,1774,1805,1830,1840,1844,1848,1850,1848,1842,1839,1839,1841,1842,1847,1846,1843,1824,1811,1782,1772,1779,1782,1778,1768,1763,1760,1760,1761,1759,1757,1753,1745,1737,1733,1730,1721,1740,1758,1764,1768,1772,1774,1769,1766,1765,1768,1771,1771,1770,1766,1767,1768,1770,1771,1770,1769,1770,1773,1776,1778,1776,1775,1775,1778,1776,1775,1772,1774,1775,1778,1778,1780,1778,1778,1778,1778,1779,1779,1780,1781,1783,1785,1784,1784,1784,1783,1782,1782,1781,1781,1781,1786,1785,1787,1786,1788,1789,1791,1793,1793,1788,1787,1786,1791,1793,1797,1797,1799,1797,1796,1796,1797,1797,1795,1796,1800,1799,1800,1798,1801,1799,1800,1799,1801,1802,1804,1805,1806,1806,1804,1805,1805,1805,1807,1809,1809,1808,1810,1813,1810,1810,1811,1815,1815,1811,1810,1812,1818,1822,1821,1820,1820,1822,1823,1824,1826,1824,1824,1822,1820,1819,1822,1828,1834,1833,1829,1827,1829,1835,1841,1841,1837,1837,1839,1842,1837,1836,1836,0,1835,1836,1837,1839,1841,1840,1844,0,0,0,0,1847,1849,0,0,0,0,0,0,1858,0,0,0,0,0,0,0,0,0,1864,1867,1875,1868,0,0,0,1901,1905,0,0,0,0,0,0,0,1911,0,1909,0,0,0,0,0,0,0,0,0,1845,1846,1836,1850,0,0,0,0,0,0,0,0,0,0,0,0,0,0,0,0,0,0,0,0,0,0,0,0,0,0,0,0,0,0,0,0,0,0,0,0,0,0,0,0,0,0,0,0,0,0,0,0,0,0,0,0,0,0,0,0,0,0,0,0,0,0,0,0,0,0,0,0,0,0,0,0,0,0,0,0,0,0,0,0,0,0,0,0,0,0,0,0,0,0,0,0,0,0,0,0,0,0,0,0,0,1440,1430,1400,1411,1416,1419,0,0,1370,1405,0,0,0,0,0,0,0,0,0,0,0,0,0,0,0,0,0,0,0,0,0,0,0,0,0,0,0,0,0,0,0,0,0,0,0,2150,2161,2172,2172,2170,2167,2161,0,0,0,0,0,0,0,0,0,0,0,0,0,0,0,0,0,0,0,0,0,0,0,0,0,0,0,0,0,0
0,1363,0,0,0,0,0,0,0,0,0,0,0,0,0,0,0,0,0,0,0,0,0,0,0,0,0,0,0,0,0,0,0,0,0,0,0,0,0,0,0,0,0,0,0,0,0,0,0,0,0,0,2437,2462,2476,2469,2479,2481,2482,2484,2481,2475,0,0,0,0,0,0,0,0,0,1746,1771,1796,1818,1837,1849,1861,1864,0,1869,1861,1789,1740,1734,1738,1738,1739,1748,1770,1808,1835,1840,1843,1847,1848,1844,1840,1839,1840,1843,1845,1847,1848,1846,1839,1821,1765,1782,1789,1795,1802,1794,1783,1775,1771,1770,1769,1762,1753,1743,1732,1730,1726,1699,1745,1762,1778,1797,1804,1805,1792,1792,1790,1789,1793,1791,1782,1783,1783,1783,1784,1784,1785,1781,1784,1787,1792,1792,1786,1781,1782,1788,1787,1781,1778,1779,1781,1782,1782,1786,1786,1789,1788,1787,1787,1786,1787,1786,1788,1788,1787,1785,1787,1785,1785,1783,1784,1785,1784,1788,1787,1787,1787,1790,1793,1793,1795,1794,1792,1787,1788,1792,1794,1796,1796,1800,1800,1798,1797,1797,1797,1795,1798,1800,1800,1800,1800,1804,1804,1802,1798,1799,1802,1805,1804,1806,1806,1807,1806,1806,1807,1808,1812,1810,1812,1811,1813,1810,1810,1811,1814,1813,1811,1813,1817,1819,1820,1816,1817,1817,1821,1823,1826,1828,1826,1824,1822,1821,1822,1825,1827,1827,1827,1825,1823,1824,1828,1832,1834,1833,1832,1832,1832,1828,1828,1828,1834,1833,1835,1831,1831,1830,1836,1838,1844,1843,1844,1841,1843,1845,1847,1848,1850,1852,1852,1849,1848,1846,1846,1845,1850,1854,1853,1852,1849,1851,1850,1854,1855,1855,1853,1855,1858,1858,1862,1865,1875,1877,1877,1875,1877,1875,1877,1872,1869,1867,1866,1865,1870,1873,1879,1876,1871,1861,1853,1841,1820,1840,1852,1865,1868,1868,0,0,0,0,0,0,0,0,1881,0,1891,0,0,0,0,0,0,0,0,0,0,0,0,0,0,0,0,0,0,0,0,0,0,0,0,0,0,0,0,0,0,0,0,0,0,0,0,0,0,0,0,0,0,0,0,0,0,0,0,0,0,0,0,0,0,0,0,0,0,0,0,0,0,0,0,0,0,0,0,0,0,0,0,0,0,0,0,0,0,0,0,1525,0,0,0,0,0,1478,1412,1373,1401,1426,0,0,0,0,0,0,0,0,0,0,0,0,0,0,0,0,0,0,0,0,0,0,0,0,0,0,0,0,0,0,0,0,0,0,0,0,0,0,0,0,2143,2161,2179,2180,2176,2168,2158,0,0,0,0,0,0,0,0,0,0,0,0,0,0,0,0,0,0,0,0,0,0,0,0,0,0,0,0,0,0
0,1363,0,0,0,0,0,0,0,0,0,0,0,0,0,0,0,0,0,0,0,0,0,0,0,0,0,0,0,0,0,0,0,0,0,0,0,0,0,0,0,0,0,0,0,0,0,0,0,0,0,0,0,2459,2471,2473,2472,2476,2486,2481,2475,2468,0,0,0,0,1716,1725,1728,1735,1734,1739,1747,1769,1788,1811,1840,1839,0,0,0,0,1783,1750,1731,1725,1725,1733,1746,1771,1815,1841,1842,1846,1850,1850,1845,1839,1837,1840,1842,1844,1845,1847,1849,1848,1851,1794,1768,1826,1814,1849,1871,1874,1852,1857,1850,1854,0,1738,1726,1719,1715,1716,1721,1743,1787,0,0,0,1913,1914,1914,1913,1911,0,0,0,0,0,0,0,0,0,0,1872,1868,1876,1873,1859,1852,0,1855,1858,0,1825,0,0,1828,1828,1830,0,0,1833,1832,1826,1826,1823,1826,1819,1815,1817,1813,1813,1812,1809,1809,1806,1806,1804,1808,1806,1805,1803,1805,1808,1808,1808,1806,1804,1797,1795,1799,1802,1804,1803,1806,1806,1805,1802,1801,1801,1802,1805,1806,1804,1804,1802,1807,1805,1805,1801,1804,1805,1808,1808,1812,1812,1811,1808,1808,1809,1810,1813,1812,1814,1814,1815,1811,1811,1812,1814,1814,1814,1817,1820,1822,1821,1818,1817,1818,1821,1823,1827,1830,1828,1826,1823,1823,1824,1827,1828,1829,1828,1829,1827,1829,1829,1833,1835,1835,1834,1835,1834,1833,1832,1833,1836,1837,1837,1835,1833,1835,1837,1840,1841,1843,1843,1842,1844,1845,1846,1845,1846,1846,1847,1845,1845,1845,1847,1847,1847,1847,1847,1848,1851,1852,1852,1852,1854,1856,1855,1858,1857,1857,1858,1861,1862,1862,1863,1863,1863,1864,1867,1865,1862,1862,1862,1863,1864,1867,1871,1870,1868,1865,1862,1858,1846,1839,1852,1858,1859,1854,1850,1848,1857,1870,1870,1865,1857,1862,1868,1874,1879,1880,1883,1884,1884,1883,1886,1889,1885,1886,1884,1893,1892,1895,1889,1890,1891,1899,1899,1895,1890,1888,1890,1895,1894,1891,1889,1895,1900,1901,1902,1901,1902,0,0,0,0,0,0,0,0,1914,1910,0,0,0,0,1898,1914,0,1926,0,0,0,0,0,0,0,0,0,0,0,0,0,0,0,0,0,0,0,0,0,0,0,0,0,0,0,0,0,0,0,0,0,0,0,0,1404,1374,0,1346,0,0,0,0,0,0,0,0,0,0,0,0,0,0,0,0,0,0,0,0,0,0,0,0,0,0,0,0,0,0,0,0,0,0,0,0,0,0,0,0,0,2146,2166,2183,2184,2177,2168,0,2099,0,0,0,0,0,0,0,0,0,0,0,0,0,0,0,0,0,0,0,0,0,0,0,0,0,0,0,0,0
0,0,0,0,0,0,0,0,0,0,0,0,0,0,0,0,0,0,0,0,0,0,0,0,0,0,0,0,1366,1353,0,0,1388,0,0,1397,1359,1342,1350,1365,1381,1383,1371,1364,1361,1365,1360,1363,1377,0,0,1378,0,2461,2471,2465,2470,2472,2481,2484,2474,2461,2445,0,0,0,1720,1726,1728,1728,1730,1733,1739,1750,1765,1782,1799,1805,1799,0,0,0,1775,1736,1723,1713,1715,1727,1741,1780,0,1905,1873,1860,1855,1851,1847,1841,1842,1845,1848,1852,1855,1861,1862,1868,0,0,0,0,1879,1899,1916,1931,1936,1930,1932,1923,0,1704,1704,1706,1704,1716,1746,1770,0,1916,1932,1937,1941,1941,1940,1940,1938,1940,1940,1941,1941,1942,1944,1941,1939,1942,1945,1944,1943,1943,1945,1943,1948,1947,1945,1944,1952,1956,1950,1940,1935,1938,1940,1941,1941,1939,1938,1933,1936,1934,1935,0,0,0,0,0,0,0,0,0,0,0,0,0,1896,1890,1899,0,1897,1895,1887,1881,1874,1869,0,1863,0,0,1851,1849,1845,1838,1834,1835,1836,1834,1830,1830,1827,1830,1833,1831,1825,1823,1823,1824,1825,1827,1834,1831,1830,1824,1826,1827,1824,1825,1823,1826,1825,1826,1821,1821,1823,1824,1822,1822,1825,1828,1828,1826,1821,1822,1823,1826,1825,1831,1833,1833,1828,1826,1827,1830,1832,1833,1832,1830,1832,1832,1833,1831,1834,1837,1839,1838,1838,1836,1836,1836,1837,1838,1838,1838,1839,1840,1843,1843,1844,1844,1845,1844,1844,1846,1847,1848,1848,1846,1845,1845,1845,1847,1847,1851,1853,1852,1848,1846,1848,1853,1854,1856,1854,1856,1856,1858,1861,1860,1859,1857,1861,1862,1863,1863,1863,1863,1863,1867,1864,1863,1862,1865,1866,1867,1867,1870,1869,1868,1868,1868,1866,1853,1844,1851,1854,1853,1843,1828,1831,1847,1865,1868,1863,1852,1852,1861,1869,1877,1880,1883,1882,1886,1886,1887,1886,1887,1888,1885,1887,1884,1888,1885,1890,1891,1895,1892,1890,1887,1887,1890,1890,1890,1888,1891,1895,1898,1903,1905,1904,1900,1898,1891,1889,1886,1887,1892,1901,1912,1916,1920,1918,1916,1904,1903,1898,1911,1916,1924,1915,1915,1909,1913,1916,1915,1910,1904,1910,0,0,0,0,1941,1940,1939,1928,1918,1927,0,0,0,0,0,0,0,0,0,0,0,0,0,0,0,0,0,0,0,0,0,0,0,0,0,0,0,0,0,0,0,0,0,0,0,0,0,0,0,0,0,0,0,0,0,0,0,0,0,0,0,0,0,0,0,0,0,0,0,0,0,0,0,2172,2187,2186,2181,2171,0,0,0,0,0,0,0,0,0,0,0,0,0,0,0,0,0,0,0,0,0,0,0,0,0,0,0,0,0,0,0
0,1275,0,0,0,0,0,0,0,0,0,0,0,0,0,1374,0,0,1388,1388,1383,1395,1388,1387,1390,1389,1384,1384,1382,1386,1386,1391,1396,1398,1394,1391,1388,1386,1391,1386,1386,1384,1384,1382,1382,1378,1369,1368,1375,1382,1380,1378,1380,0,2460,2467,2470,2472,2476,2479,2479,2474,0,0,0,0,1725,1731,1734,1735,1734,1736,1737,1746,1754,0,1840,1812,1814,1821,1849,1822,1748,1722,1698,1701,1706,1717,1736,0,0,1953,1953,1935,1905,1886,1889,1870,1850,1860,1869,1866,1871,1885,1889,0,0,1909,0,1954,1897,1920,1934,1949,1957,1958,1941,1927,0,1699,1697,1696,1695,1723,1759,0,0,1933,1941,1946,1950,1950,1946,1944,1941,1946,1951,1952,1951,1949,1952,1952,1953,1955,1957,1954,1953,1953,1955,1956,1959,1959,1959,1958,1962,1966,1963,1956,1952,1952,1958,1960,1961,1961,1959,1958,1958,1960,1962,1962,1960,1958,1957,1956,1959,1961,1967,1966,1963,1961,1963,1969,1969,1967,1964,1963,1966,1966,1964,1964,1964,1962,1960,1960,1962,1967,1970,1968,1961,1959,1954,0,0,1964,1965,1965,0,0,0,0,0,0,0,0,0,0,0,0,1920,1924,1923,1909,1899,1894,1895,0,1918,1909,0,0,0,0,0,0,1869,1871,1870,1860,1858,1857,1857,1849,1852,1858,1863,1858,1853,1846,1849,1852,1851,1851,1853,1849,1854,1855,1855,1847,1848,1848,1853,1853,1853,1849,1853,1853,1855,1852,1851,1847,1851,1855,1860,1854,1855,1852,1853,1850,1849,1850,1851,1853,1853,1849,1846,1845,1846,1847,1851,1856,1859,1856,1850,1849,1854,1861,1863,1864,1860,1860,1858,1858,1863,1863,1866,1862,1866,1866,1868,1867,1866,1865,1863,1865,1864,1861,1862,1866,1870,1870,1871,1870,1867,1867,1869,1870,1866,1856,1841,1836,1834,1796,1828,1816,1816,1830,1851,1861,1855,1846,1844,1862,1873,1879,1880,1881,1881,1884,1884,1884,1887,1890,1891,1887,1885,1884,1889,1890,1892,1892,1896,1896,1894,1893,1890,1892,1891,1890,1893,1894,1899,1899,1905,1904,1904,1899,1902,1902,1899,1893,1890,1895,1900,1910,1912,1916,1912,1911,1905,1904,1905,1912,1917,1919,1914,1912,1909,1913,1913,1917,1915,1914,1918,1921,1923,1917,1913,1916,1924,1928,1920,1924,1921,1924,1928,1939,1938,1928,0,0,0,1923,0,0,0,0,0,0,0,0,0,0,0,0,0,0,0,0,0,0,0,0,0,0,0,0,0,0,0,0,0,0,0,0,0,0,0,0,0,0,0,0,0,0,0,0,0,0,0,0,0,0,0,0,0,0,2176,2186,2187,2183,2177,2165,0,0,0,0,0,0,0,0,0,0,0,0,0,0,0,0,0,0,0,0,0,0,0,0,0,0,0,0,0,0
0,0,0,0,0,0,1865,0,0,0,0,1375,1384,1393,1393,1392,1389,1381,1387,1387,1394,1390,1391,1386,1386,1386,1386,1387,1388,1390,1387,1387,1391,1398,1396,1394,1391,1394,1395,1391,1387,1383,1385,1381,1383,1384,1382,1377,1375,1378,1380,1379,1380,1379,0,2452,2469,2469,2472,2476,2473,0,0,0,0,1716,1730,1734,1735,1736,1737,1740,1741,1744,0,0,1824,1830,1833,1842,1856,1865,1725,1699,1695,1696,1700,1708,1726,0,1942,1966,1972,1973,1973,1967,0,0,0,1946,0,0,2038,0,2049,2052,2060,2063,0,0,0,0,1968,1985,1983,1955,1945,0,1702,1691,1687,1685,1685,0,1757,0,0,1957,1960,1962,1964,1965,1961,1954,1950,1955,1962,1965,1963,1960,1961,1960,1962,1965,1966,1964,1957,1956,1961,1965,1966,1963,1965,1963,1967,1968,1967,1961,1959,1960,1964,1964,1966,1967,1969,1966,1968,1969,1975,1974,1970,1967,1966,1968,1971,1972,1976,1976,1975,1973,1974,1979,1978,1976,1974,1975,1978,1977,1976,1976,1978,1981,1980,1981,1980,1983,1984,1987,1986,1984,1981,1980,1984,1987,1991,1990,1990,1989,1990,1990,1987,1985,1984,1985,1986,1989,1989,1987,1985,1987,1988,1987,1988,1990,1992,1990,1991,1995,1996,1995,1993,1995,1993,1996,1993,1994,1990,1987,1983,1981,1987,1984,1977,1979,1982,1985,1978,0,0,1946,0,0,0,0,0,0,0,0,0,1947,1947,0,0,0,0,0,0,1939,1941,0,1943,1938,1933,1940,1923,1920,1910,0,1902,1895,1891,1896,1892,1871,1871,1872,1880,1883,1873,1881,1889,1886,1881,1871,1872,1895,1898,1897,1893,1891,1872,1876,1879,1884,1881,1873,1876,1889,1887,1882,1881,1880,1879,1879,1872,1870,1870,1881,1884,1885,1882,1879,1871,1873,1877,1880,1874,1869,1854,0,1777,1822,1827,1822,1823,1827,1833,1838,1838,1835,1839,1860,1878,1885,1886,1884,1886,1891,1890,1888,1889,1896,1897,1891,1886,1883,1890,1892,1896,1895,1895,1894,1895,1898,1897,1897,1896,1896,1898,1900,1905,1906,1913,1909,1907,1900,1905,1906,1906,1898,1896,1895,1898,1906,1910,1912,1909,1910,1911,1915,1913,1914,1914,1911,1910,1909,1910,1912,1916,1918,1921,1918,1920,1918,1919,1919,1918,1921,1920,1920,1922,1924,1926,1927,1928,1932,1932,1932,1932,1936,1933,1926,1920,1924,1918,1922,1926,1931,1928,1921,1915,0,0,0,0,0,0,0,0,0,0,0,0,0,0,0,0,0,0,0,0,0,0,0,0,0,0,0,0,0,0,0,0,0,0,0,0,0,0,0,0,0,0,0,0,2145,2167,2183,2187,2184,2178,2159,2126,0,0,0,0,0,0,0,0,0,0,0,0,0,0,0,0,0,0,0,0,0,0,0,0,0,0,0,0,0
0,0,0,0,0,0,0,0,0,0,0,1383,1392,1397,1399,1391,1387,1383,1385,1391,1393,1395,1395,1395,1393,1391,1392,1392,1390,1391,1392,1393,1400,1408,1404,1398,1392,1396,1400,1399,1397,1394,1396,1387,1388,1389,1392,1385,1382,1385,1390,1389,1383,1379,1389,2465,2474,2478,2483,2485,2483,2491,0,0,0,0,1730,1733,1733,1740,1742,1746,1743,1745,0,0,1828,1833,1841,1852,1895,0,0,1693,1692,1693,1695,1703,1723,1765,0,1974,1990,0,0,0,0,0,0,0,0,0,0,0,2071,2071,2085,2093,2100,2103,2103,0,0,0,0,0,0,0,1692,1691,1680,1679,1679,1666,1730,0,0,2074,2063,2070,2077,2076,0,0,0,2039,2052,2061,2045,2038,2041,2019,2036,0,2066,2044,2005,1990,2006,0,2010,1997,1987,1985,1991,1993,1982,1983,1979,1979,1989,1977,1979,1986,1995,1990,1982,1982,1988,1985,1982,1981,1980,1983,1987,1983,1985,1983,1983,1981,1981,1983,1982,1979,1977,1977,1980,1980,1981,1982,1985,1989,1989,1986,1983,1984,1988,1992,1992,1990,1987,1987,1990,1992,1996,1996,1998,1998,1999,1998,1999,1996,1996,1995,1997,1999,1998,1998,1996,1999,2000,2002,2004,2006,2005,2001,2001,2005,2005,2007,2005,2007,2004,2006,2006,2008,2008,2006,2006,2007,2011,2010,2009,2008,2009,2009,2009,2011,2010,2009,2006,2007,2008,2011,2015,2016,2016,2016,2016,2021,2020,2019,2013,2013,2014,2016,2017,2017,2017,2019,2021,2028,2026,2023,2024,2023,2022,2022,2023,2025,2020,2015,0,2013,2021,2026,2022,2016,2019,0,2026,2026,2026,2018,2025,2025,2020,2023,2012,0,0,2003,0,1996,0,2020,0,0,2000,0,1998,0,0,1984,0,0,1969,0,1980,0,1965,0,1958,1908,0,0,0,0,0,0,0,1818,1824,1819,1822,1820,1817,1819,1829,1838,1849,1877,1904,1913,1907,1903,1905,1909,1905,1899,1907,1915,1916,1913,1903,1905,1907,1906,1908,1909,1907,1899,1905,1912,1910,1911,1908,1909,1910,1907,1915,1918,1924,1916,1912,1911,1915,1913,1911,1907,1905,1906,1907,1913,1914,1911,1908,1912,1918,1922,1921,1918,1917,1912,1910,1906,1909,1912,1919,1923,1927,1923,1921,1917,1920,1921,1924,1925,1921,1919,1921,1926,1927,1931,1929,1931,1930,1932,1934,1934,1931,1926,1920,1919,1919,1926,1927,1930,1928,1929,1929,1931,1934,1935,1924,1931,1932,1932,0,0,0,0,0,0,0,0,0,0,1931,1924,0,0,0,0,0,0,0,0,0,0,0,0,0,0,0,0,0,0,0,0,0,0,0,0,0,2156,2170,2181,2185,2181,2172,0,2090,0,0,0,0,0,0,0,0,0,0,0,0,0,0,0,0,0,0,0,0,0,0,0,0,0,0,0,0,0
0,0,0,0,0,0,0,0,0,0,1363,1380,1394,1403,1401,1399,1396,1391,1388,1391,1400,1409,1415,1409,1402,1397,1402,1406,1403,1402,1407,1417,1421,1430,1422,1415,1409,1417,1415,1417,1418,1419,1414,1403,1403,1410,1412,1407,1402,1405,1409,1399,1388,1381,1392,0,2474,2470,2476,2475,2472,2476,0,0,0,0,1732,1733,1733,1736,1739,1741,1742,1744,0,1851,1834,1835,1843,1895,0,0,0,1691,1686,1685,1691,1701,1720,1750,0,1998,2014,0,0,0,0,0,0,0,0,0,0,0,0,0,0,2104,2116,2122,2134,2150,2151,2145,2129,0,0,0,1679,1676,1668,1670,1646,1694,0,0,2111,2112,2113,2118,2122,2121,2124,2127,2126,2127,2126,2126,2123,2124,2126,2127,2126,2129,2128,2126,2121,2126,2129,2128,2121,2123,2122,2120,2127,2125,2122,2117,0,2114,2117,0,0,2124,0,2125,0,0,0,0,0,0,0,2071,0,0,0,0,2063,0,2026,2029,0,2019,2018,2025,2020,2012,2013,2004,2015,2019,2013,2008,2004,2002,2003,2009,2006,2004,2001,2001,2000,2003,2007,2004,2006,2008,2008,2008,2009,2006,2005,2004,2008,2008,2007,2008,2006,2006,2005,2008,2012,2016,2013,2010,2007,2008,2006,2010,2009,2010,2008,2011,2014,2016,2015,2013,2015,2018,2020,2019,2017,2017,2016,2017,2019,2023,2021,2019,2017,2021,2024,2024,2025,2025,2026,2026,2028,2032,2030,2030,2027,2027,2027,2027,2030,2031,2032,2033,2035,2039,2037,2038,2037,2039,2041,2042,2042,2037,2037,2040,2038,2036,2037,2041,2042,2041,2043,2047,2053,2050,2047,2042,2046,2049,2051,2051,2049,2043,2041,2041,2038,2040,2042,2045,2044,2046,2053,2050,2047,2046,2049,2052,2048,2046,2047,2048,2043,2040,2045,2050,2052,2052,2050,2049,2052,2050,0,0,1825,1820,1818,1819,1817,1817,1814,1824,1836,1856,0,0,0,2054,2052,2056,0,0,0,0,0,0,0,0,0,0,0,0,0,0,0,1987,1995,0,1998,2004,1992,1973,0,1981,1986,0,2005,1956,0,1986,0,1935,0,1941,1944,1942,1947,1961,1948,1931,1930,1940,1959,1945,1945,1938,1936,1935,1921,1915,1919,1921,1927,1930,1939,1933,1927,1925,1927,1933,1937,1937,1930,1925,1926,1927,1931,1931,1935,1934,1930,1930,1930,1936,1932,1929,1928,1927,1926,1930,1932,1937,1935,1939,1937,1938,1939,1937,1934,1934,1941,1937,1931,0,1935,1939,1946,1942,1941,1942,1946,1937,1933,1927,1934,0,0,0,0,0,0,0,0,0,0,0,0,0,0,0,0,0,0,0,0,0,0,0,2163,2170,2175,2184,2186,2180,2170,0,0,0,0,0,0,0,0,0,0,0,0,0,0,0,0,0,0,0,0,0,0,0,0,0,0,0,0,0,0,0
0,0,0,0,0,0,0,0,0,0,1367,1383,1393,1403,1417,1418,1422,1410,1406,1404,1419,1428,1434,1436,1438,1423,1425,1426,1428,1434,1457,1459,1464,1467,1454,1450,1450,1462,1462,1462,1480,1478,1472,1461,1453,1450,1449,1443,1439,1442,1439,1408,1390,1383,1391,0,2464,2464,2462,2456,2468,2471,0,0,0,0,1731,1733,1733,1735,1736,1736,1739,1744,1761,0,1842,1837,1850,1894,0,0,1688,1680,1678,1674,1686,1698,1720,1753,0,1995,2017,0,0,0,0,0,0,0,0,0,2217,0,0,0,0,2104,2120,2132,2148,2158,2157,2155,2139,0,0,1664,1665,1663,1662,1658,1694,0,0,2099,2116,2121,2122,2130,2131,2131,2133,2139,2141,2141,2141,2140,2138,2139,2140,2143,2142,2143,2141,2140,2138,2139,2142,2145,2145,2147,2144,2143,2142,2140,2136,2134,2138,2141,2146,2145,2149,2147,2152,2152,2152,2150,2145,2143,2143,2150,2154,2152,2148,2149,2153,2153,2155,2155,2157,2157,2158,2155,2151,2147,2146,2147,2149,2143,2139,0,0,2141,0,0,0,0,0,0,0,0,0,0,0,2102,2084,0,2076,0,0,2092,2083,2075,0,0,0,0,0,2046,2043,2042,2055,2051,2045,2045,2043,2038,2029,2028,2024,2024,2028,2037,2046,2050,2039,2031,2031,2035,2035,2031,2032,2027,2026,2027,2035,2037,2030,2028,2027,2031,2036,2033,2029,2029,2034,2036,2037,2038,2038,2040,2039,2036,2035,2032,2034,2036,2037,2040,2042,2045,2044,2044,2043,2042,2044,2046,2045,2043,2042,2046,2044,2043,2041,2044,2047,2046,2048,2050,2057,2054,2051,2049,2050,2053,2053,2056,2059,2055,2052,2049,2049,2048,2050,2053,2056,2057,2063,2062,2059,2057,2059,2061,2059,2059,2060,2061,2057,2058,2058,2065,2066,2068,2068,2068,2068,2065,0,0,1831,1821,1817,1811,1808,1809,1812,1825,1842,1879,0,2053,2073,2078,2076,2076,2074,2073,2070,2067,2065,2060,2061,2064,2071,2078,2079,2076,2071,2068,2065,2061,2068,2077,2078,2070,2066,2066,2066,2072,2079,2079,2071,0,2055,0,2072,2073,2072,2067,2063,0,0,0,0,0,0,0,0,2036,0,0,2020,0,2006,1989,1984,1974,1983,1990,2002,1985,0,1966,1965,1967,1992,2000,1983,1972,1959,1956,1958,1960,1952,1972,1956,1939,1951,1951,1959,1946,1945,1946,1943,1939,1943,1945,1949,1950,1949,1948,1950,1952,1950,1954,1949,0,0,0,0,0,1954,1949,1945,1941,1946,1941,1937,1930,0,0,0,0,0,1931,1944,0,0,0,0,0,0,0,0,0,0,0,0,0,0,0,0,0,2172,2165,2178,2184,2188,2181,2171,2151,0,0,0,0,0,0,0,0,0,0,0,0,0,0,0,0,0,0,0,0,0,0,0,0,0,0,0,0,0,0
0,0,0,0,0,0,0,0,0,0,1378,1385,1397,1408,1424,1432,1435,1431,1431,1433,1440,1445,1456,1470,1483,1477,1465,1462,1475,1487,1496,1496,1495,1495,1491,1483,1484,1495,1498,1507,1504,1506,1498,1491,1492,1493,1489,1476,1476,1473,1460,1414,1390,1384,1388,0,2470,2475,2479,2476,2476,0,0,0,0,1727,1735,1735,1737,1737,1737,1735,1737,1741,0,1905,1831,1835,1852,1920,1967,0,1678,1670,1666,1665,1674,1687,1716,0,0,2003,2016,2028,2056,2081,0,0,0,0,2421,2420,2415,2400,2366,0,0,0,2127,2148,2162,2161,2159,2154,2126,0,0,1651,1646,1655,1651,1668,1706,0,0,2116,2129,2130,2130,2137,2142,2141,2146,2153,2155,2155,2157,2157,2151,2148,2147,2151,2152,2152,2147,2148,2144,2145,2146,2151,2154,2158,2154,2150,2147,2144,2140,2140,2146,2150,2153,2152,2156,2157,2160,2160,2160,2161,2157,2156,2156,2161,2162,2162,2161,2163,2166,2165,2167,2169,2171,2170,2171,2171,2167,2164,2165,2167,2168,2166,2164,2166,2168,2170,2170,2175,2175,2174,2172,2170,2173,2174,2174,2173,2174,2177,2173,2173,2170,2173,2177,2177,2174,2171,2172,2171,2172,2177,2178,2179,2177,2174,2173,2176,2176,2178,2172,0,0,0,0,0,0,0,2177,2174,2170,2169,0,0,0,0,0,0,0,0,0,0,2119,2123,2116,0,0,0,2121,0,2123,0,0,0,2076,2086,2081,0,2075,2080,2063,2067,2069,2069,2072,2078,2071,2077,2078,2066,2061,2058,2053,2051,2054,2061,2061,2059,2055,2055,2056,2057,2051,2056,2063,2065,2061,2062,2066,2065,2061,2066,2067,2064,2057,2058,2060,2058,2061,2066,2067,2066,2068,2068,2063,2063,2062,2065,2062,2064,2065,2070,2070,2068,2067,2068,2068,2070,2071,2071,2073,2073,2069,0,1832,1805,1815,1809,1803,1803,1803,1815,1842,0,0,2068,2078,2080,2077,2081,2080,2085,2081,2080,2075,2073,2075,2078,2084,2089,2094,2092,2088,2083,2081,2081,2088,2093,2095,2091,2090,2088,2086,2091,2095,2096,2089,2085,2082,2089,2094,2096,2092,2089,2085,2084,2085,2088,2091,2092,2091,2085,2085,2082,2085,2079,2076,2072,2073,2069,2063,2062,2058,2066,2073,2076,2075,0,2060,2063,0,2071,2061,2058,0,0,0,0,0,0,0,0,0,0,0,0,2027,0,0,0,0,0,0,0,1982,1977,0,0,0,0,0,0,0,0,0,0,0,0,0,0,0,0,0,0,0,0,0,0,0,0,1946,0,0,0,0,0,0,0,0,0,0,0,0,0,0,0,0,0,2156,2158,2167,2181,2187,2183,2173,2156,0,0,0,0,0,0,0,0,0,0,0,0,0,0,0,0,0,0,0,0,0,0,0,0,0,0,0,0,0,0
0,0,0,0,0,0,0,0,0,0,1387,1397,1403,1414,1427,1434,1439,1438,1444,1447,1455,1462,1480,1486,1494,1489,1487,1483,1489,1494,1503,1502,1503,1502,1502,1503,1496,1501,1511,1511,1509,1503,1503,1504,1506,1500,1497,1492,1490,1484,1460,1414,1393,1388,1391,0,2480,2478,2483,2484,2482,2447,0,0,0,1738,1737,1735,1733,1736,1737,1738,1738,1741,0,1860,1832,1838,1857,1932,0,0,1670,1667,1665,1664,1669,1678,1715,0,1999,2009,2012,2028,2054,2079,2133,2174,2221,0,0,0,0,2377,2370,2301,0,0,0,0,2191,2180,2164,2149,0,0,1647,1644,1640,1635,1653,1661,1684,0,0,2162,2175,2171,2163,2167,2175,2192,2204,2213,2218,2218,2224,2220,2212,2201,2208,2216,2222,2206,2196,2187,2182,2182,2183,2190,2191,2189,2180,2167,2163,2160,2153,2155,2170,2172,2169,2162,2165,2169,2174,2172,2170,2171,2169,2166,2166,2167,2167,2168,2171,2171,2171,2167,2170,2173,2174,2172,2172,2175,2174,2171,2171,2172,2173,2173,2172,2175,2176,2176,2178,2181,2182,2180,2180,2181,2183,2183,2181,2182,2184,2189,2186,2187,2185,2189,2191,2192,2192,2188,2187,2186,2190,2195,2196,2198,2196,2197,2195,2198,2197,2199,2196,2195,2198,2211,2224,2213,2194,2195,2198,2197,2199,2197,2198,2193,2196,2204,2210,2207,2201,2204,2208,2205,2203,2197,2197,2201,2205,2204,2199,2200,2198,2198,2195,2195,2193,2192,0,0,2200,2204,2200,0,0,0,0,0,0,0,0,0,0,2196,0,0,0,0,0,0,2138,2129,2150,0,2148,2131,2131,0,0,0,2161,2153,2124,2140,2131,0,2138,2144,2112,2117,2119,2101,2098,2093,2096,2112,0,2108,2099,2094,2090,2095,2091,2100,2101,2095,2092,2086,2077,2078,2079,2082,2083,2088,0,0,0,0,1799,1802,1800,1796,1797,1804,1835,0,0,2079,2083,2085,2087,2092,2093,2095,2095,2090,2088,2087,2089,2090,2094,2094,2098,2098,2095,2091,2090,2089,2095,2095,2098,2095,2098,2096,2094,2094,2097,2095,2095,2090,2089,2094,2099,2101,2098,2092,2094,2095,2098,2094,2094,2098,2101,2100,2101,2101,2103,2097,2096,2094,2097,2096,2092,2089,2092,2095,2098,2102,2101,2101,2093,2097,2097,2102,2092,2093,2094,2098,2093,2089,2089,2093,2091,2088,2083,2079,2083,2083,2084,2075,2071,2075,2078,0,0,0,2059,0,0,0,0,0,0,0,0,0,0,0,0,0,0,0,0,0,0,0,0,0,0,0,0,0,0,0,0,0,0,0,0,0,0,0,0,0,0,0,0,0,0,0,2155,2160,2169,2177,2182,2180,2173,0,0,0,0,0,0,0,0,0,0,0,0,0,0,0,0,0,0,0,0,0,0,0,0,0,0,0,0,0,0,0
0,1567,0,0,0,0,0,0,0,1362,1394,1401,1407,1420,1427,1436,1438,1444,1450,1456,1462,1469,1481,1491,1491,1492,1499,1498,1498,1496,1507,1511,1514,1508,1515,1510,1508,1502,1511,1516,1504,1500,1500,1512,1513,1512,1506,1503,1500,1490,1471,1416,1397,1389,1395,0,2475,2476,2478,2478,2476,2453,0,0,0,1742,1740,1735,1735,1737,1740,1743,1744,1750,1776,1819,1828,1838,1857,1910,0,0,1669,1664,1655,1650,1653,1667,1689,0,0,0,0,0,2392,0,2181,2183,2173,2176,2182,2179,0,0,0,0,0,0,0,0,0,2255,0,0,0,1636,1643,1643,1636,1633,1640,1661,1679,0,2211,2228,2224,2218,2217,2217,2233,2242,2249,2251,2255,2258,2261,2257,2254,2250,2251,2258,2263,2268,2262,2257,2245,2241,2243,0,0,0,0,0,0,0,0,0,0,0,0,0,0,0,0,0,0,0,0,2214,0,2216,2213,0,0,0,2199,2197,2197,2204,2198,2192,2186,2191,2195,2191,2181,2180,2182,2190,2190,2198,2192,2198,2191,2189,2185,2183,2184,2186,2189,2189,2183,2186,2191,2198,2195,2197,2195,2196,2194,2196,2199,2196,2190,2189,2193,2200,2201,2203,2202,2203,2200,2202,2200,2204,2202,2203,2206,2227,2237,2228,2204,2201,2204,2204,2207,2205,2205,2201,2204,2212,2215,2215,2211,2213,2215,2215,2218,2215,2214,2214,2214,2217,2215,2216,2214,2215,2214,2214,2217,2217,2215,2217,2224,2228,2224,2223,2230,2231,2229,2225,2226,2223,2222,2224,2223,2225,2225,2222,2211,2207,2210,2207,2197,2215,2223,2220,2207,2198,2211,2212,2227,2233,2231,2217,2214,2215,2217,2217,0,2197,2199,2194,2197,2188,2185,0,0,0,0,0,0,0,0,2217,0,0,2192,0,0,0,0,0,0,0,0,0,0,0,0,0,0,1800,1795,1790,1787,1792,1812,0,0,0,2145,2160,2138,2167,2170,2153,2154,2133,2127,2123,2144,2130,2123,2115,2116,2126,2126,2121,2116,2114,2114,2113,2110,2112,2110,2109,2109,2111,2109,2109,2106,2103,2101,2105,2106,2104,2098,2094,2097,2104,2107,2102,2101,2101,2102,2102,2107,2107,2107,2101,2098,2097,2100,2097,2094,2096,2099,2100,2099,2102,2105,2105,2100,2104,2107,2112,2107,2105,2107,2109,2106,2099,2098,2100,2103,2102,2102,2098,2100,2099,2099,2094,2095,2098,2102,2101,2097,2099,2095,2090,2089,2088,0,0,2081,2087,2081,2083,0,0,0,0,0,0,0,0,0,0,0,0,0,0,0,0,0,0,0,0,0,0,0,0,0,0,0,0,0,0,0,0,0,0,2156,2165,2173,2178,2180,2180,2172,0,2079,0,0,0,0,0,0,0,0,0,0,0,0,0,0,0,0,0,0,0,0,0,0,0,0,0,0,0,0,0
0,0,0,0,0,0,0,0,0,0,1394,1402,1406,1421,1433,1442,1436,1446,1457,1472,1475,1477,1486,1497,1500,1501,1508,1507,1501,1496,1503,1509,1513,1512,1515,1518,1518,1511,1516,1518,1518,1510,1510,1517,1518,1521,1515,1514,1509,1503,1482,1418,1387,1383,1391,0,2494,2490,2481,2484,2489,2484,0,0,0,1740,1738,1734,1730,1733,1738,1743,1745,1751,1770,0,0,1845,1862,1893,0,0,1658,1654,1646,1643,1649,1659,1674,0,0,0,0,0,0,0,0,0,0,2184,2161,0,0,0,0,0,0,0,0,2365,0,2303,0,0,0,1627,1634,1632,1633,1632,1646,1659,0,0,2247,2254,2252,2239,0,2264,0,2269,2272,2273,2275,2277,2281,2282,2284,2282,2281,2282,2285,2297,2304,2304,0,2303,2299,0,0,0,0,0,0,0,0,0,0,0,0,0,0,0,2402,0,0,0,2357,2369,0,2411,0,0,0,0,0,0,0,0,0,0,0,0,0,0,0,0,0,0,0,0,0,0,0,0,0,0,2267,2244,2262,0,0,0,0,0,0,2248,2253,2223,2220,2230,2239,2236,2218,2199,2215,2240,2243,2249,2259,2250,2247,2235,2233,2235,2232,2224,2227,2252,2276,2243,2236,2223,2215,2209,2213,2213,2220,2220,2219,2218,2219,2220,2222,2219,2221,2226,2230,2229,2226,2218,2217,2221,2223,2222,2220,2221,2221,2222,2226,2230,2228,2226,2229,2230,2232,2230,2240,2238,2238,2233,2234,2230,2231,2233,2231,2232,2233,2234,2220,2217,2220,2221,2222,2226,2232,2229,2227,2229,2232,2233,2238,2243,2241,2238,2233,2235,2239,2244,2235,2223,2220,2217,2216,2213,2224,2226,2237,2249,2257,2257,2252,2253,2246,2245,2239,2238,2235,2230,2234,2240,2247,2249,2247,2244,2243,2245,2248,2243,0,0,0,1759,1785,1772,1775,1780,1788,1805,0,0,2224,2229,2232,2238,2236,2234,0,2240,2238,0,0,2233,0,0,0,2232,0,2213,2207,2208,2206,0,0,0,0,0,0,0,0,0,0,0,2172,2157,0,0,0,2128,0,2136,2134,0,2130,2127,2126,2125,2130,2135,2130,2124,0,0,0,2110,2109,2120,2116,2105,2104,2109,2112,2107,2103,2105,2112,2117,2115,2114,2109,2107,2107,2107,2103,2104,2112,2113,2108,2100,2100,2096,2097,2094,2096,2093,0,0,2102,2105,2109,2106,2105,2098,0,0,2091,2095,2093,2094,2092,2093,2094,2091,0,0,0,0,0,0,0,0,0,0,0,0,0,0,0,0,0,0,0,0,0,0,0,0,0,0,0,0,0,0,2160,2168,2180,2182,2180,2175,2168,2149,0,0,0,0,0,0,0,0,0,0,0,0,0,0,0,0,0,0,0,0,0,0,0,0,0,0,0,0,0,0
0,0,0,0,0,0,0,0,0,0,1397,1404,1404,1419,1437,1435,1436,1446,1462,1475,1478,1480,1485,1500,1503,1507,1510,1511,1510,1508,1512,1515,1518,1515,1514,1516,1520,1519,1520,1521,1519,1516,1515,1525,1527,1527,1520,1518,1516,1512,1493,1408,1382,1377,1387,0,2492,2490,2483,2482,2492,0,0,0,0,1735,1738,1735,1734,1735,1739,1742,1743,1748,0,0,0,1859,1909,1899,0,0,1645,1637,1635,1635,1642,1651,1661,1680,0,0,0,0,0,0,0,0,0,0,0,0,0,0,2207,2217,2236,2258,2299,2326,0,0,0,0,0,1620,1624,1621,1628,1633,1645,1660,0,0,2295,0,0,0,0,0,0,0,0,2362,0,0,2343,2344,0,2327,2316,2334,2356,2356,2368,2392,2400,2393,0,0,0,0,0,0,0,0,0,0,0,0,0,0,0,0,0,2455,0,0,0,0,0,0,0,0,0,0,0,0,0,0,0,0,2412,0,0,2416,0,0,2416,2426,2414,0,0,0,0,0,2406,0,0,0,0,0,0,2424,2411,2411,0,0,0,0,0,0,0,0,0,0,0,0,2337,2339,2339,2336,2332,2328,2325,2311,2312,2320,2315,0,0,0,0,0,0,0,0,0,0,0,2276,0,0,0,0,0,2319,0,0,2318,2307,0,2250,0,2270,2258,2256,2260,2263,2262,2263,2267,2267,2264,2251,2246,2249,2251,2257,2247,2248,2249,2254,2250,2255,2255,2245,2242,2243,2251,2242,2233,2230,2235,2238,2239,2235,2235,2241,2246,2250,2243,2244,2239,2243,2241,2242,2243,2248,2251,2244,2233,2232,2222,2218,2218,2228,2235,2243,2253,2258,2259,2252,2253,2250,2252,2251,2250,2247,2244,2246,2252,2259,2261,2257,2257,2255,2258,2253,2251,2239,0,0,0,1772,1769,1766,1771,1767,1775,0,2225,2245,2253,2255,2261,2260,2263,2264,2267,2263,2259,2259,2261,2257,2257,2256,2261,2257,2258,2255,2256,2251,2252,2252,2258,2253,2249,2247,2248,2244,2238,2236,2241,2248,2246,0,0,0,2224,2224,2214,0,0,0,0,0,2222,2222,0,0,0,0,0,0,0,0,0,0,0,0,0,0,0,0,0,0,0,0,0,0,0,0,0,0,0,0,0,0,2133,0,0,0,0,0,0,0,0,0,0,0,0,0,0,0,0,0,0,2090,0,2085,2094,2097,2097,2094,0,0,0,0,0,0,0,0,0,0,0,0,0,0,0,0,0,0,0,0,0,0,0,0,0,0,0,0,0,2160,2165,2180,2183,2183,2177,2167,2140,0,0,0,0,0,0,0,0,0,0,0,0,0,0,0,0,0,0,0,0,0,0,0,0,0,0,0,0,0,0
0,0,0,0,0,0,0,0,0,0,1399,1403,1409,1422,1423,1434,1442,1454,1466,1479,1484,1487,1491,1500,1505,1506,1506,1510,1515,1516,1519,1521,1522,1518,1516,1517,1524,1522,1525,1523,1523,1522,1523,1529,1529,1527,1523,1524,1520,1516,1490,1410,1377,1377,1386,0,2490,2483,2481,2480,2478,2474,0,0,0,0,1735,1733,1735,1737,1740,1738,1735,1736,0,0,1858,1847,1889,1921,0,0,1641,1637,1636,1632,1638,1642,1655,0,0,0,2423,2413,0,0,2423,2425,0,2376,0,0,2406,0,2230,2227,2249,2271,2259,0,2258,0,0,0,0,1617,1617,1614,1623,1629,1642,1673,0,0,0,0,2452,2447,2447,2452,2451,2446,2449,2452,2448,0,2418,2407,0,0,2360,0,2389,2389,2393,2417,2423,0,0,0,0,0,0,0,0,0,0,0,0,0,0,0,0,2473,2463,2458,2454,2443,2443,2441,2443,2446,2448,2433,0,0,0,2399,0,0,0,0,0,0,0,0,0,0,0,0,0,0,0,0,0,0,0,0,0,0,0,0,0,0,0,0,0,0,0,2469,2465,0,0,0,0,0,2384,2371,2371,2366,2363,2356,2351,2354,2356,2354,2351,2354,2359,2379,0,2467,2472,0,0,0,0,2444,0,0,0,0,2412,2418,2415,2410,2402,2401,2395,2382,2372,2378,2376,0,2349,2354,2354,0,0,0,0,0,0,0,0,0,0,0,0,2337,2335,2327,2334,2320,2320,2319,2314,2291,2298,2301,2309,2301,2284,2273,2283,0,2281,2268,2280,2283,2264,2263,2246,2244,2247,2253,2257,2259,2281,2276,2274,2268,2248,2226,2220,2222,2231,2247,2255,2259,2266,2264,2255,2250,2251,2255,2254,2250,2253,2257,2261,2264,2267,2268,2267,2269,2271,2269,2259,2259,2250,0,0,0,0,1771,1763,1761,1753,1761,0,0,2240,2256,2258,2269,2267,2269,2267,2269,2269,2266,2266,2265,2264,2264,2264,2267,2264,2265,2263,2266,2264,2261,2262,2265,2266,2259,2255,2254,2258,2256,2259,2262,2269,2268,2265,2256,2254,2255,2252,2247,2241,2248,2252,2255,2255,2261,2265,2259,2255,2256,2260,2257,2246,2242,2241,2243,2241,2241,2246,2245,2236,2241,2250,2258,2255,2253,2243,2245,2244,2242,2237,2240,2229,2214,0,0,2227,2258,2257,0,0,2197,0,0,0,0,0,0,0,0,0,0,0,0,0,0,0,0,0,0,0,0,0,0,0,0,0,0,0,0,0,0,0,0,0,0,0,0,0,0,0,0,0,0,0,0,0,0,0,0,0,0,2173,2168,2182,2185,2188,2179,2169,0,0,0,0,0,0,0,0,0,0,0,0,0,0,0,0,0,0,0,0,0,0,0,0,0,0,0,0,0,0,0
0,1433,0,0,0,0,0,0,0,0,1396,1402,1413,1414,1418,1431,1450,1466,1471,1478,1483,1490,1496,1502,1505,1506,1505,1509,1516,1523,1527,1531,1530,1526,1523,1523,1525,1525,1526,1527,1529,1529,1531,1535,1536,1533,1530,1528,1523,1517,1489,1413,1383,1379,1385,0,2489,2484,2484,2485,2486,2475,0,0,0,0,1733,1733,1740,1740,1742,1737,1737,1736,0,1830,1832,1838,1846,1880,0,1642,1640,1636,1632,1632,1633,1640,1646,0,0,2420,0,0,0,0,0,0,0,0,0,2440,2433,0,2257,2238,2261,2354,2302,2252,0,0,0,1559,1595,1604,1607,1607,1616,1620,1627,1631,1629,1611,1587,0,0,0,0,0,0,0,0,0,0,0,0,0,0,0,0,0,0,0,0,0,0,0,0,0,0,0,0,0,0,0,0,0,0,0,0,0,0,0,0,0,0,0,0,0,2449,0,0,0,0,0,0,0,0,0,0,0,0,0,0,0,0,0,0,0,0,0,0,0,0,0,0,0,0,0,0,0,0,0,0,0,0,0,0,2467,2476,0,0,0,0,0,2370,2367,2370,2369,2367,2361,2355,2356,2359,2364,2364,2368,2373,2395,2442,2483,2492,2493,2479,2466,2468,2469,2467,0,0,2415,2426,2434,2429,2429,2423,2421,2407,2390,2384,2394,2405,2398,2399,2394,2395,2408,2424,2429,2430,2423,2433,2440,2438,2424,2419,2416,2410,2395,2383,2379,2375,2367,2361,2362,2359,2349,2346,2352,2362,2360,2354,2342,2357,0,0,0,0,0,0,0,0,0,0,0,0,0,2333,2335,2324,2309,2278,2238,2225,2228,2249,2286,2317,2311,2296,2296,2270,2246,2245,2255,0,2254,2277,0,0,0,0,0,0,0,0,0,0,2298,2295,0,0,0,0,1784,1758,1754,1745,1749,1755,0,0,2258,2279,2277,2278,2281,2285,2285,2289,2286,2281,2283,2281,2281,2286,2282,2278,2272,2275,2273,2272,2268,2267,2273,2270,2266,2260,2261,2263,2264,2265,2269,2274,2275,2272,2267,2263,2264,2264,2258,2250,2256,2258,2261,2262,2269,2274,2269,2268,2267,2273,2267,2262,2251,2254,2255,2259,2259,2261,2260,2258,2263,2264,2269,2268,2270,2271,2274,2279,2273,2273,2271,2267,2259,2249,2245,2278,2285,2284,2267,2260,2264,2256,2242,0,0,0,0,0,0,0,0,0,0,0,0,0,0,0,0,0,0,0,0,0,0,0,0,0,0,0,0,0,0,0,0,0,0,0,0,0,0,0,0,0,0,0,0,0,0,0,0,2172,2166,2178,2182,2190,2187,2177,0,2065,0,0,0,0,0,0,0,0,0,0,0,0,0,0,0,0,0,0,0,0,0,0,0,0,0,0,0,0,0
0,0,0,0,0,0,0,0,0,1374,1381,1400,1409,1412,1423,1439,1460,1463,1466,1475,1478,1489,1497,1503,1506,1512,1512,1513,1514,1523,1527,1533,1532,1532,1531,1534,1536,1533,1528,1530,1534,1536,1536,1536,1539,1536,1536,1534,1529,1524,1496,1410,1384,1382,1385,1359,2481,2473,2471,2473,2475,2443,0,0,0,0,1730,1734,1742,1742,1741,1738,1739,1737,0,0,1836,1839,1850,1882,0,1629,1633,1634,1630,1630,1632,1643,1652,0,0,0,0,0,0,0,0,0,0,0,0,0,2419,0,2255,2242,2275,2338,2298,2254,0,0,0,1579,1588,1594,1595,1594,1608,1614,1617,1617,1615,1612,1612,1616,1619,1621,1614,0,0,1620,1617,1617,1615,1619,1626,1629,1634,1631,1630,1626,1629,1630,1634,1636,1635,1634,1638,1641,1643,1642,1643,1639,1631,1628,1629,1635,1638,1642,1637,1632,1632,1633,1627,0,0,1645,0,0,0,0,0,0,0,0,0,0,0,0,1626,1616,0,0,0,0,0,0,0,0,0,0,0,0,0,0,0,0,0,0,0,0,0,0,0,0,0,0,0,0,0,0,0,0,0,0,0,0,2358,2358,2356,2353,2349,2348,2352,2360,2362,2363,2365,2380,2416,0,2495,2492,2482,2460,0,0,0,0,0,0,0,2412,2421,2424,2425,2423,2398,2370,2375,2382,2390,2396,2397,2402,2413,2420,2432,2434,2434,2430,2437,2445,2446,2439,2432,2428,2422,2411,2400,2390,2382,2373,2367,2370,2372,2363,2359,2363,2370,2376,2379,2380,2392,0,2449,2462,2450,2416,0,0,0,0,0,0,0,2361,2359,2366,2363,2351,2304,2249,2232,2237,2260,0,0,0,0,0,0,0,0,0,0,0,0,0,2501,2484,0,0,0,0,0,0,0,0,2371,2357,0,0,0,0,1748,1746,1740,1738,1732,1739,0,0,0,0,0,0,2365,2375,2382,0,0,0,0,0,2372,2363,2354,0,0,0,0,0,0,0,0,2305,0,0,0,0,0,0,2314,0,0,0,0,0,0,2297,2288,2281,2281,2278,2282,2284,2277,2269,2277,2273,2275,2274,2266,2255,2259,2260,2261,2259,2261,2264,2265,2265,2262,2259,2262,2267,2274,2278,2282,2279,2283,2282,2281,2274,2269,2274,2298,2301,2298,2285,2274,2280,2274,2272,2275,2271,2250,0,0,0,2235,0,0,0,0,0,0,0,0,0,0,0,0,0,0,0,0,0,0,0,0,0,0,0,0,0,0,0,0,0,0,0,0,0,0,0,0,0,0,0,0,0,2162,2168,2184,2188,2194,2190,2179,0,0,0,0,0,0,0,0,0,0,0,0,0,0,0,0,0,0,0,0,0,0,0,0,0,0,0,0,0,0,0
0,0,0,0,0,0,0,0,0,1344,1371,1394,1406,1415,1429,1447,1449,1458,1459,1464,1471,1482,1494,1503,1514,1521,1521,1516,1515,1527,1533,1537,1532,1533,1535,1542,1542,1538,1532,1535,1541,1540,1539,1540,1546,1541,1539,1537,1539,1536,1488,1404,1382,1383,1389,0,2469,2474,2477,2474,2472,0,0,0,0,1728,1732,1735,1740,1737,1737,1737,1743,0,0,1866,1842,1847,1853,1910,0,1619,1621,1621,1615,1618,1622,1645,1665,0,0,0,0,0,0,0,0,0,2347,2374,2358,2424,2407,0,2250,2247,2263,0,0,0,0,0,1574,1583,1589,1589,1584,1584,1599,1608,1612,1613,1614,1615,1615,1616,1618,1618,1615,1615,1616,1621,1620,1619,1616,1619,1622,1623,1625,1621,1622,1619,1623,1622,1623,1625,1627,1628,1628,1629,1630,1631,1630,1630,1628,1629,1627,1629,1630,1633,1631,1630,1629,1631,1630,1631,1638,1641,1640,1636,1637,1638,1640,1640,1640,1641,1642,1642,1643,1645,1643,1642,1640,1640,1639,1641,1643,1648,1648,1648,1646,1645,1646,1644,1651,1655,1661,1659,1659,1659,1659,1658,1658,1655,1658,1660,1662,1657,1657,0,0,1659,1657,1654,1658,1661,1665,0,0,0,0,0,0,0,0,0,0,0,0,0,0,0,0,0,0,0,0,1702,0,0,0,0,0,0,0,0,0,0,0,0,0,0,0,0,2386,2400,2411,2417,2418,2421,2422,2418,2426,2434,2437,2432,2420,2412,2412,2410,2391,2378,2368,2359,2357,2363,2365,2357,2355,2358,2368,2374,2376,2376,0,0,2461,2476,2457,0,0,0,0,0,0,0,0,0,2356,2361,2366,2360,2318,2243,2222,2223,2244,0,0,0,0,0,0,0,0,0,0,0,0,2504,2509,2507,2499,2504,2507,2512,2512,2512,2494,2459,2405,2381,0,0,0,0,1738,1736,1729,1730,1726,1724,0,0,0,0,0,0,2453,2458,2459,2464,2465,2468,2462,2458,2455,2453,2447,2428,0,0,0,0,0,0,0,0,0,0,0,0,2456,0,0,0,2476,2475,2473,2469,0,0,0,0,0,0,0,0,0,0,0,0,0,0,0,0,0,2303,0,0,2280,2292,2288,2288,2277,0,0,0,0,2300,2304,2306,2312,2316,2302,2290,2279,2282,2300,2302,2301,2287,2275,2274,2272,2275,2290,2288,2272,2252,2242,2237,0,0,0,0,0,0,0,0,0,0,0,0,0,0,0,0,0,0,0,0,0,0,0,0,0,0,0,0,0,0,0,0,0,0,0,0,0,0,0,0,0,0,2169,2177,2185,2190,2193,2189,2178,2156,0,0,0,0,0,0,0,0,0,0,0,0,0,0,0,0,0,0,0,0,0,0,0,0,0,0,0,0,0,0
0,0,0,0,0,0,0,0,0,1315,1368,1398,1411,1423,1445,1439,1446,1454,1454,1461,1464,1478,1494,1507,1517,1528,1528,1527,1525,1532,1536,1535,1532,1531,1536,1542,1547,1544,1539,1538,1543,1543,1543,1541,1540,1538,1541,1543,1544,1543,1520,1398,1382,1384,1393,0,2483,2483,2492,2489,2474,0,0,0,0,1726,1734,1736,1739,1737,1737,1735,1738,0,0,0,1840,1846,1855,1896,0,1613,1612,1608,1601,1602,1612,1636,0,0,0,0,0,0,0,2074,0,0,0,0,0,2423,2432,2415,2276,2241,2242,0,0,0,0,0,1572,1581,1587,1591,1587,1587,1601,1612,1616,1614,1613,1615,1616,1616,1616,1616,1616,1617,1618,1621,1621,1621,1620,1620,1621,1621,1623,1621,1623,1622,1624,1623,1625,1626,1627,1627,1628,1629,1630,1631,1631,1632,1630,1630,1627,1628,1629,1632,1633,1632,1631,1631,1630,1633,1637,1639,1636,1634,1637,1638,1640,1640,1641,1642,1642,1643,1642,1641,1638,1639,1640,1644,1644,1644,1643,1646,1646,1645,1646,1647,1647,1646,1648,1651,1654,1653,1652,1652,1653,1654,1655,1655,1657,1657,1660,1659,1660,1657,1658,1655,1656,1655,1659,1660,1662,1662,1666,1668,1672,1673,1679,1678,1679,1677,1680,1679,1678,1676,1674,1670,1666,1659,1669,1672,1680,1681,1685,1684,1683,1683,1681,1685,1688,1691,1689,1684,1682,1684,1687,1695,0,1699,0,1676,1691,1687,1700,1700,1697,0,1672,0,0,1703,1690,1673,1665,0,0,0,0,0,0,0,0,0,0,0,0,0,0,0,0,0,0,0,1690,0,0,1668,1660,1686,1673,1667,0,0,0,0,0,0,0,0,0,0,0,0,0,0,0,0,0,0,0,0,0,0,0,0,0,2487,0,2496,0,0,0,0,2508,0,0,0,0,0,0,0,1730,1725,1721,1720,1719,1722,1714,0,0,0,2448,2463,2475,2478,2482,2484,2487,2488,2484,2482,2482,2482,2481,2467,0,0,0,0,0,0,0,0,0,2470,2487,2505,2516,2513,2513,2510,2508,2507,2506,2504,2503,2499,2506,2528,0,2611,2614,2610,2598,2592,2553,0,0,2379,2370,2368,2362,2359,2369,2380,2363,2348,2350,0,0,0,2347,2346,2352,2367,2382,2374,2373,2366,2362,0,2286,2282,2299,2303,2303,2290,2276,0,0,0,2289,2303,0,2291,2278,0,0,0,2274,2284,2279,2264,2278,0,0,0,0,0,0,0,0,0,0,0,0,0,0,0,0,0,2144,0,0,0,0,0,0,0,0,0,0,0,0,0,0,0,0,0,2185,2187,2194,2193,2195,2188,2177,2155,0,0,0,0,0,0,0,0,0,0,0,0,0,0,0,0,0,0,0,0,0,0,0,0,0,0,0,0,0,0
0,1196,0,0,0,0,0,0,0,1300,1360,1403,1417,1429,1421,1438,1442,1448,1467,1469,1470,1485,1503,1515,1524,1530,1535,1535,1533,1536,1537,1535,1534,1533,1539,1540,1546,1546,1546,1543,1545,1546,1547,1546,1541,1543,1547,1549,1545,1541,1522,1396,1380,1383,1394,0,2484,2485,2493,2492,2482,0,0,0,0,1724,1733,1734,1737,1736,1738,1735,1737,0,0,0,1835,1847,1853,1892,0,1609,1599,1590,1583,1591,1600,1621,0,0,0,0,0,0,2116,2085,2124,0,2197,2232,2232,0,0,0,2252,2238,2227,0,0,0,0,1568,1575,1574,1578,1586,1589,1590,1597,1608,1615,1614,1616,1617,1618,1616,1614,1615,1616,1618,1620,1623,1625,1624,1621,1620,1620,1623,1623,1623,1625,1626,1625,1623,1623,1625,1627,1628,1627,1629,1629,1632,1631,1634,1632,1631,1628,1629,1629,1634,1634,1635,1633,1632,1631,1634,1638,1640,1639,1636,1638,1638,1640,1641,1642,1642,1642,1644,1642,1641,1640,1643,1645,1649,1647,1646,1644,1646,1646,1647,1646,1647,1647,1647,1648,1650,1652,1652,1651,1653,1654,1654,1654,1655,1657,1657,1658,1659,1659,1658,1657,1656,1657,1656,1660,1660,1662,1659,1660,1661,1663,1665,1667,1666,1667,1668,1671,1670,1670,1668,1668,1666,1666,1666,1668,1668,1673,1672,1674,1674,1675,1676,1676,1678,1679,1681,1681,1681,1679,1678,1679,1682,1684,1682,1683,1680,1682,1682,1689,1691,1688,1682,1682,1683,1686,1686,1690,1690,1690,1690,1692,1693,1698,1702,1700,1697,1695,1703,1705,1704,1699,1701,1700,1694,1692,1691,1694,1697,1703,1702,1697,1695,1696,1699,1698,1699,1698,1706,1708,1713,1710,1709,1706,1711,0,0,0,1712,1718,1719,1716,1706,1700,1697,1698,1703,1704,1702,1696,1694,1709,1713,1707,0,1727,0,0,1691,1717,1701,1700,1721,1723,1717,1717,1725,1725,1722,1719,1720,1718,1719,1714,1695,0,0,2482,2474,2480,2481,2486,2488,2491,2490,2488,2487,2486,2483,2479,2480,2482,0,0,0,0,0,0,2449,2475,2494,2511,2518,2528,2524,2522,2518,2518,2520,2522,2521,2522,2528,2551,2588,2619,2632,2634,2631,2626,2622,2611,0,0,0,2432,2431,2406,2403,2430,2405,2393,2394,0,0,0,2382,2390,2385,2381,2392,2400,2410,2406,2401,2383,0,2297,2285,2295,2293,2293,2283,0,0,0,0,0,0,0,0,0,0,0,0,2297,2299,2298,2302,2309,2327,0,0,0,0,0,0,0,0,0,0,0,0,0,0,0,0,2147,0,0,0,0,0,0,0,0,0,0,0,0,0,0,0,0,0,2181,2194,2194,2195,2193,2186,2174,2149,0,0,0,0,0,0,0,0,0,0,0,0,0,0,0,0,0,0,0,0,0,0,0,0,0,0,0,0,0,0
0,0,0,0,0,0,0,0,0,0,1382,1406,1420,1426,1429,1425,1454,1479,1474,1475,1479,1493,1504,1516,1525,1531,1538,1540,1540,1540,1539,1537,1542,1542,1547,1543,1549,1552,1555,1549,1546,1548,1550,1549,1544,1551,1555,1553,1543,1538,0,1401,1385,1383,1393,0,2484,2474,2476,2481,2485,0,0,0,0,1721,1731,1731,1734,1736,1739,1738,1738,0,0,1875,1833,1843,1850,0,0,1606,1593,1586,1583,1593,1598,1606,0,0,0,2416,2399,0,2417,2413,2409,2394,2369,0,2199,0,2229,2211,2224,2216,2218,0,0,0,0,1574,1575,1569,1570,1575,1583,1588,1594,1596,1609,0,0,0,0,0,0,0,0,0,0,0,0,0,0,0,1623,1625,1629,1632,1636,1637,1633,1629,1630,1631,1630,1629,1631,1634,1632,1635,1636,1636,1635,1632,1631,1632,1633,1634,1635,1638,1636,1634,1632,1635,1637,1640,1641,1640,1641,1640,1643,1643,1643,1644,1644,1646,1643,1643,1641,1645,1647,1651,1650,1649,1647,1647,1647,1646,1647,1647,1649,1650,1649,1650,1650,1653,1652,1654,1654,1654,1654,1655,1657,1657,1658,1659,1658,1657,1658,1659,1660,1659,1661,1661,1662,1660,1660,1661,1664,1666,1668,1666,1667,1670,1673,1671,1670,1668,1669,1667,1669,1667,1669,1668,1673,1673,1674,1674,1675,1677,1675,1677,1677,1678,1679,1680,1680,1680,1680,1682,1682,1681,1682,1679,1680,1680,1685,1688,1686,1682,1681,1681,1683,1684,1687,1690,1690,1688,1688,1688,1689,1691,1690,1690,1689,1696,1697,1695,1690,1692,1694,1692,1693,1692,1697,1698,1700,1700,1699,1698,1700,1702,1700,1699,1695,1698,1701,1705,1705,1701,1700,1703,1705,1706,1703,1703,1707,1708,1709,1706,1704,1703,1704,1704,1702,1702,1701,1706,1709,1711,1711,1716,1717,1714,1710,1712,1714,1713,1714,1716,1716,1717,1719,1722,1723,1721,1719,1716,1709,1709,1704,1693,0,0,2496,2479,2481,2480,2487,2486,2490,2491,2491,2486,2484,2479,2472,0,0,0,2486,2496,2506,2505,2494,2489,2498,2510,2519,2522,2527,2522,2518,2515,2517,2522,2528,2530,2537,2552,2593,2615,2633,2639,2640,2638,2636,2634,2622,2607,2595,0,0,0,0,0,0,2452,0,0,0,0,0,0,0,0,2403,0,0,2406,2420,2404,0,0,2279,2288,2292,2290,2279,0,0,0,0,0,0,0,0,0,0,1364,0,0,2312,2315,2306,2312,2318,2327,0,0,0,0,0,0,0,0,0,0,0,0,0,0,0,2165,2152,2143,0,0,0,0,0,0,0,0,0,0,0,0,0,0,0,0,2179,2189,2194,2194,2189,2183,2170,2149,0,0,0,0,0,0,0,0,0,0,0,0,0,0,0,0,0,0,0,0,0,0,0,0,0,0,0,0,0,0
0,0,0,0,0,0,0,0,0,0,1388,1400,1408,1417,1426,1436,1445,1467,1473,1477,1479,1495,1501,1513,1526,1533,1534,1535,1538,1540,1542,1544,1550,1553,1555,1550,1552,1556,1556,1555,1548,1551,1550,1553,1556,1561,1558,1553,1547,1544,1479,1403,1387,1383,1393,0,2481,2482,2472,2490,2499,0,0,0,0,1727,1732,1731,1731,1735,1738,1740,1739,1740,0,1876,1837,1849,1850,0,0,1607,1596,1589,1583,1588,1588,1585,1567,0,0,0,0,0,0,0,0,0,0,0,0,0,2252,0,2195,2215,0,0,0,0,0,1566,1566,1563,1564,1567,1573,1580,1586,0,0,0,0,0,0,0,0,0,0,0,0,0,0,0,0,0,0,0,0,0,0,0,0,0,0,0,0,0,0,0,0,0,1636,1639,1634,1642,1641,1644,1643,1641,1639,1646,1642,1641,1641,1638,1638,1647,1656,1653,1650,1648,1653,1650,1651,1654,1656,1655,1651,1653,1654,1659,1658,1657,1653,1655,1653,1655,1653,1653,1652,1651,1653,1656,1656,1656,1655,1658,1657,1660,1659,1659,1657,1658,1658,1659,1658,1660,1657,1659,1662,1666,1666,1662,1664,1665,1666,1664,1665,1667,1668,1673,1672,1668,1671,1677,1682,1676,1674,1672,1673,1672,1673,1672,1671,1671,1674,1674,1673,1675,1676,1678,1676,1676,1677,1679,1682,1681,1682,1680,1681,1682,1683,1681,1682,1679,1680,1679,1684,1686,1687,1685,1683,1684,1684,1688,1690,1694,1695,1692,1691,1688,1688,1689,1690,1691,1693,1697,1697,1693,1688,1690,1693,1693,1696,1697,1702,1700,1701,1700,1702,1700,1701,1702,1701,1700,1696,1700,1702,1707,1706,1703,1702,1704,1707,1707,1706,1707,1708,1706,1705,1706,1708,1709,1708,1708,1705,1705,1705,1710,1712,1712,1712,1711,1713,1710,1711,1710,1714,1715,1717,1718,1718,1720,1720,1723,1722,1721,1718,1715,1708,1702,1698,1694,1687,0,2480,0,2459,2467,2470,2468,2470,2473,2471,2463,0,0,0,0,0,0,0,2480,2480,2485,2479,2479,2485,2493,2499,2502,2507,2507,2504,2506,2504,2507,2507,2517,0,2565,2596,2614,2626,2628,2632,2630,2630,2624,2611,2593,0,2573,0,0,2631,2602,0,0,0,0,0,0,0,0,0,0,0,0,0,0,0,0,0,0,2275,2283,2285,2282,0,0,0,0,0,0,0,0,0,0,0,1355,1362,0,0,2319,2313,2318,2318,2324,2326,0,0,1362,0,0,0,0,0,0,0,0,0,0,0,2177,2153,2149,0,0,0,0,0,0,0,0,0,0,0,0,0,0,0,0,2181,2193,2194,2198,2193,2186,2171,2149,0,0,0,0,0,0,0,0,0,0,0,0,0,0,0,0,0,0,0,0,0,0,0,0,0,0,0,0,0,0
0,0,0,0,0,0,0,0,0,1379,1399,1401,1407,1414,1437,1436,1445,1445,1462,1469,1478,1491,1505,1516,1528,1532,1534,1538,1544,1546,1547,1551,1557,1559,1559,1555,1557,1561,1565,1563,1555,1554,1550,1552,1558,1563,1560,1555,1554,1552,0,1411,1392,1384,1393,1368,2469,2459,2465,2483,2489,0,0,0,0,1729,1731,1732,1735,1739,1742,1740,1741,1741,0,0,1844,1850,1849,0,0,1607,1600,1596,1589,1588,1588,1578,0,0,0,0,0,0,0,0,0,0,0,0,0,0,0,0,0,2226,2219,0,0,0,1567,1563,1560,1560,1563,1567,1569,1574,1576,0,2467,2469,2468,2464,2469,2473,2477,2479,2483,2482,2483,2478,2478,2478,2479,2474,2469,2467,0,0,0,0,0,0,0,0,0,0,0,0,0,0,0,0,0,0,0,0,0,0,0,0,0,0,0,0,0,0,0,0,0,0,0,0,0,0,0,0,0,0,0,0,0,0,1647,0,0,1657,0,1644,0,1646,1639,1665,0,0,1646,1677,1676,1671,1665,1664,1658,1668,1667,1665,1665,1664,1660,1658,1670,1680,1680,1679,1685,0,0,0,0,1692,0,0,0,0,0,0,0,0,1694,1696,0,1696,0,0,0,1684,1685,1680,1682,1686,1686,1687,1686,1684,1684,1691,1695,0,1692,1692,1692,1692,1693,1696,0,1689,1686,1688,1690,1694,1697,1695,1691,1691,1694,1698,1699,1702,1701,1698,1697,1691,1687,1688,1690,1694,1699,1701,1699,1695,1693,1696,1700,1699,1700,1700,1704,1698,1701,1701,1706,1704,1704,1702,1704,1704,1703,1701,1704,1706,1704,1702,1703,1708,1709,1710,1708,1709,1709,1706,1703,1708,1714,1716,1713,1709,1708,1706,1710,1712,1715,1712,1713,1709,1709,1709,1710,1711,1713,1717,1717,1720,1719,1722,1720,1722,1721,1720,1715,1708,1699,1694,1690,1689,1690,0,0,0,0,0,0,0,0,0,0,0,0,0,0,2313,2310,2312,0,0,0,0,0,0,0,0,0,0,0,0,0,0,0,0,0,0,0,0,0,2593,2603,2605,2608,2608,2601,0,0,0,0,0,2554,0,0,0,0,0,0,0,0,0,0,0,0,0,0,0,0,0,0,0,0,2262,2267,2275,2273,2286,0,1399,1417,0,0,0,0,0,0,0,0,1366,1331,0,0,2315,2306,2310,2307,2313,2313,0,0,0,0,0,0,0,0,0,0,0,0,2192,2193,2177,2150,2140,0,0,0,0,0,0,0,0,0,0,0,0,0,0,0,0,2192,2195,2194,2196,2195,2190,2177,2156,0,0,0,0,0,0,0,0,0,0,0,0,0,0,0,0,0,0,0,0,0,0,0,0,0,0,0,0,0,0
0,0,0,0,0,0,0,0,0,1380,1398,1400,1405,1416,1437,1435,1438,1445,1459,1468,1479,1493,1507,1521,1524,1530,1535,1542,1548,1551,1549,1552,1556,1560,1559,1559,1561,1568,1570,1567,1561,1559,1558,1560,1561,1562,1560,1559,1560,1557,1503,1412,1394,1386,1394,0,0,2462,2462,2483,2481,0,0,0,0,1738,1735,1739,1743,1744,1742,1739,1744,1747,0,0,1846,1847,1843,0,0,1600,1590,1577,1572,1578,1579,1599,0,0,0,0,0,0,0,0,2427,2430,2436,2426,2430,2444,2452,2426,0,2242,2216,0,0,0,1553,1551,1551,1554,1560,1564,1566,1565,0,2462,2472,2473,2473,2469,2474,2478,2481,2483,2485,2486,2482,2479,2476,2478,2482,2481,2475,2471,0,0,0,0,0,0,0,0,0,0,2409,2429,2433,2436,2422,2418,0,0,0,0,0,0,0,0,0,2470,2483,2482,2477,0,0,0,0,0,0,0,0,0,0,0,0,0,0,0,0,0,0,0,0,0,0,0,0,0,0,0,0,0,0,0,0,0,0,0,0,0,0,0,0,0,0,0,0,0,0,0,0,2333,2331,2335,2333,2331,2320,2316,2317,2317,0,0,0,0,0,2325,2329,0,0,0,0,0,0,2380,0,0,0,0,0,0,0,0,0,0,0,2342,2342,2341,2339,0,2338,2341,0,0,0,0,0,0,0,0,0,0,0,0,0,0,0,0,0,0,1681,0,0,0,0,0,0,0,0,1696,1689,1694,1701,1698,1698,1695,1706,1708,1707,1702,1702,1716,1718,1718,1714,1711,1695,1697,1705,1712,1709,1709,1719,1727,1722,1711,1701,1714,1726,1732,1724,1722,1720,1719,1722,1720,1721,1717,1719,1714,1715,1712,1714,1716,1720,1723,1723,1726,1723,1725,1721,1724,1722,1720,1713,1702,1696,1687,1683,1683,1688,1700,0,2244,2268,2278,2283,2282,2280,2278,2277,2280,2276,2274,2271,2268,2267,2265,2264,2267,2277,2284,2287,2288,2296,2297,2295,2292,2288,2299,2299,2304,2301,2290,2280,2287,2295,2290,2289,2294,2303,2319,2311,2300,2308,2305,2284,2271,2269,2275,2270,2272,2262,2263,2264,2268,0,0,2260,2258,0,0,0,2263,0,0,0,0,0,0,2243,2264,2266,2269,0,0,0,0,0,0,0,0,0,0,0,0,0,1376,1351,1337,0,2284,2303,2314,2317,2314,2304,0,0,0,0,0,0,0,0,0,0,0,0,0,0,2169,0,0,0,0,0,0,0,0,0,0,0,0,0,0,0,0,0,0,2191,2195,2195,2195,2196,2193,2182,2163,0,0,0,0,0,0,0,0,0,0,0,0,0,0,0,0,0,0,0,0,0,0,0,0,0,0,0,0,0,0
0,0,0,0,1872,0,0,0,0,1351,1402,1404,1410,1421,1445,1444,1448,1458,1470,1470,1481,1490,1509,1520,1526,1532,1539,1548,1555,1557,1558,1558,1559,1558,1559,1561,1565,1571,1575,1571,1567,1564,1566,1563,1564,1564,1567,1567,1567,1562,1495,1414,1395,1390,1393,0,2495,2467,2477,2487,2489,0,0,0,0,1729,1733,1739,1745,1744,1744,1742,1749,1756,0,0,1841,1840,1837,0,0,1589,1578,1566,1562,1565,1579,1586,0,0,0,0,0,0,2426,2427,0,0,0,2427,2434,2448,2454,2427,2328,2245,2229,0,0,1548,1542,1539,1543,1547,1552,1554,1560,1554,0,2462,2470,2471,2470,2467,2473,2476,2479,2479,2479,2479,2477,2474,2473,2475,2481,2481,2477,2470,0,0,0,3552,0,0,0,0,0,0,0,0,0,0,0,0,0,0,0,0,0,0,0,0,0,2446,2474,2486,0,0,2432,0,0,2411,0,0,0,0,0,2416,0,0,0,0,0,0,0,0,0,0,0,0,0,0,0,0,0,0,0,0,0,0,0,0,0,0,0,0,2430,2444,2468,2480,2481,0,0,0,2344,2344,2340,2342,2341,2341,2332,2328,2326,2326,2325,2327,2333,2336,2340,2340,2345,2344,2344,2344,2346,2349,2368,2399,2408,2409,2410,2406,2397,2392,2397,2398,2389,2378,2372,2371,2369,2368,2364,2360,2358,2362,2364,2365,2362,2364,2375,2397,2423,2442,2450,2450,2439,2433,2439,2444,0,0,0,0,0,0,2436,2426,2417,2410,2403,2407,0,0,0,0,0,0,2494,0,2476,0,0,0,0,2384,2387,2385,0,0,0,0,0,0,0,0,0,0,0,0,0,0,0,0,0,0,0,0,0,0,0,0,0,0,0,0,0,0,0,0,0,0,1717,0,1697,0,1732,1727,1709,1694,1686,1681,1676,1676,1682,1688,0,0,2260,2276,2277,2275,2269,2266,2270,2269,2268,2262,2262,2263,2263,2260,2258,2262,2267,2269,2275,2278,2286,2281,2275,2268,2267,2270,2272,2278,2274,2273,2264,2267,2269,2272,2272,2272,2280,2285,2280,2271,2266,2270,2268,2265,2258,2256,2257,2259,2257,2253,2255,2256,0,2252,2253,2252,2261,2256,2260,2252,2250,2254,0,0,0,2233,2244,2260,2262,0,0,0,0,0,0,0,0,0,0,0,0,0,0,1423,1363,0,0,0,2306,2318,2315,2314,2300,0,0,0,0,0,0,0,0,0,0,0,0,0,0,0,0,0,0,0,0,0,0,0,0,0,0,0,0,0,0,0,0,0,2195,2197,2190,2189,2188,2187,2178,2161,0,0,0,0,0,0,0,0,0,0,0,0,0,0,0,0,0,0,0,0,0,0,0,0,0,0,0,0,0,0
0,0,0,0,0,0,0,0,0,1378,1398,1403,1406,1415,1452,1451,1472,1469,1470,1474,1485,1494,1504,1517,1527,1538,1541,1551,1556,1558,1558,1563,1565,1563,1561,1564,1567,1574,1576,1573,1570,1570,1577,1575,1572,1568,1569,1570,1570,1569,1492,1406,1389,1388,1393,0,2486,2478,2464,2472,2472,0,0,0,1682,1722,1734,1741,1744,1739,1741,1743,1754,1767,0,0,1837,1837,1841,0,0,1563,1561,1556,1549,1554,1567,1576,0,0,0,0,0,0,0,0,0,0,0,0,0,0,0,2381,2285,2252,0,0,0,1539,1532,1529,1538,1542,1541,1541,1551,0,0,2467,2472,2470,2469,2468,2473,2474,2475,2475,2472,2473,2471,2467,2461,0,2468,2474,2468,0,0,0,0,0,0,0,0,0,0,0,0,0,0,0,0,0,0,0,2432,2428,2430,2450,2453,2450,2444,2430,2462,2477,0,0,0,0,0,0,0,0,0,0,0,0,0,0,0,0,0,0,0,0,0,0,0,0,0,0,0,0,0,0,0,0,0,0,0,0,0,0,2421,0,2438,2441,2465,2481,2485,2469,0,2369,2350,2344,2340,2340,2342,2340,2334,2330,2328,2328,2324,2326,2333,2338,2340,2339,2345,2345,2347,2347,2350,2355,2372,2395,2411,2422,2425,2424,2414,2410,2408,2412,2405,2397,2390,2385,2382,2379,2377,2373,2369,2370,2369,2369,2366,2370,2377,2398,2422,2443,2445,2449,2445,2445,2446,2448,2448,0,0,2457,2457,2454,2447,2444,2434,2425,2419,2418,2423,2431,0,0,2453,2487,2498,2487,2476,2472,2453,2428,2407,2404,2407,2401,2394,2397,2407,0,2423,2437,2428,2400,2396,2399,2397,2397,2402,2405,2402,2396,2390,2371,2382,0,0,2367,0,0,0,0,0,0,0,0,0,0,0,0,0,0,0,0,0,0,0,1688,1684,1672,1664,1666,1675,1677,1670,0,0,2305,2310,2284,2278,2284,2285,0,0,2279,2285,2290,2290,2284,0,2304,2307,0,0,0,0,0,2307,2302,2311,2317,2295,2289,2286,2295,2288,2280,2290,2297,2304,2308,2303,2300,2297,2285,2279,2286,2281,2280,0,0,0,2263,2263,0,0,0,0,0,2254,2261,2268,2266,0,0,0,0,0,0,0,2242,0,0,0,0,0,0,0,0,0,0,0,0,0,0,0,0,0,1404,0,0,0,0,2314,2321,2315,2313,2295,2279,0,0,0,0,0,0,0,0,0,0,0,0,0,0,0,0,0,0,0,0,0,0,0,0,0,0,0,0,0,0,0,0,2192,2193,2191,2191,2189,2187,2179,2164,0,0,0,0,0,0,0,0,0,0,0,0,0,0,0,0,0,0,0,0,0,0,0,0,0,0,0,0,0,0
0,0,0,0,0,0,0,0,0,1395,1401,1405,1414,1433,1435,1444,1451,1464,1465,1473,1488,1498,1500,1513,1529,1542,1548,1555,1562,1563,1566,1567,1571,1570,1568,1568,1571,1574,1577,1575,1575,1577,1584,1580,1577,1572,1576,1577,1578,1579,0,1407,1391,1390,1392,0,2451,2457,2449,2433,2440,0,0,0,0,1715,1729,1736,1740,1740,1741,1743,1754,1779,0,0,1838,1840,1843,0,0,1546,1548,1550,1558,1561,1567,1573,0,0,2136,2140,2136,2163,2178,0,2261,2290,0,0,2359,0,2378,0,0,0,0,0,1510,1533,1527,1522,1534,1539,1540,1539,1552,0,2456,2467,2470,2469,2470,2471,2477,2475,2471,0,0,0,0,0,0,0,0,0,0,0,0,0,0,3550,0,0,0,0,0,0,0,0,0,0,0,0,0,0,0,0,2439,2446,2459,0,2442,2450,2470,2477,2474,0,0,0,0,0,0,0,0,0,0,0,0,0,0,2421,2430,0,2461,2470,2472,0,0,0,0,0,0,0,0,0,2440,0,0,0,0,0,0,0,0,0,0,0,0,2482,2481,0,0,2366,2346,2338,2335,2336,2338,2333,2331,2327,2329,2328,2326,2325,2327,2330,2335,2336,2342,2341,2346,2345,2350,2357,2367,2383,2398,2421,2432,2438,2434,2426,2416,2416,2412,2407,2393,2388,2383,2383,2382,2378,2374,2370,2367,2366,2366,2369,2372,2388,2412,2437,2436,2441,2442,2447,2445,2447,2449,0,0,0,0,2464,2461,2448,2439,2431,2429,2425,2426,2419,2410,2411,2450,2481,2479,2476,2459,2460,2435,2421,2408,2409,2409,2403,2398,2396,2399,2405,2415,2427,2421,2412,2406,2405,2404,2407,2411,2415,2415,2410,2404,2403,2401,2396,2388,2387,2407,2409,2408,2405,2415,2419,2426,2423,2424,2427,2426,2424,2426,0,0,0,0,0,0,0,1687,1673,1663,1660,1665,1663,1655,0,0,0,0,0,0,0,0,0,0,0,0,0,0,0,0,0,0,2486,0,0,0,0,0,0,0,0,0,0,0,0,0,0,0,0,0,0,0,0,0,0,0,0,0,0,0,0,0,0,2314,0,0,0,0,0,0,0,0,0,2309,0,0,0,0,0,0,0,0,0,1427,1432,0,0,0,0,0,0,0,0,0,0,0,0,0,0,0,0,1392,0,2322,2325,2318,2307,2293,2285,0,0,0,0,0,0,0,0,0,0,0,0,0,0,0,0,0,0,0,0,0,0,0,0,0,0,0,0,0,0,0,0,2189,2187,2188,2191,2192,2187,2179,2163,0,0,0,0,0,0,0,0,0,0,0,0,0,0,0,0,0,0,0,0,0,0,0,0,0,0,0,0,0,0
0,0,0,0,0,0,0,0,0,1387,1391,1398,1414,1419,1434,1429,1443,1470,1476,1482,1491,1499,1498,1505,1527,1544,1551,1558,1566,1566,1568,1568,1574,1575,1573,1573,1575,1578,1576,1578,1579,1586,1587,1587,1583,1579,1579,1579,1581,1583,0,1405,1392,1390,1394,0,2434,2400,2431,2436,2432,0,0,0,0,1730,1737,1740,1741,1741,1741,1743,1759,1792,2057,2058,1847,1844,1842,0,1536,1542,1541,1549,1552,1557,1563,1569,0,2163,2166,2168,2173,2177,2178,2189,2205,2221,2214,2212,2225,2259,2301,2245,0,0,0,0,1526,1525,1520,1517,1526,1535,1538,1541,0,0,2441,2456,2465,2469,2473,2475,2477,2473,2464,2452,2423,2413,2413,0,0,2399,2416,0,0,0,0,3551,3551,3555,0,0,0,0,0,0,0,0,0,0,0,0,0,0,0,0,0,0,0,0,0,0,2474,2479,0,0,0,0,0,0,0,0,0,0,0,0,0,0,0,2433,2425,2443,2458,2471,0,0,0,0,0,0,0,0,0,0,0,0,0,0,0,0,0,0,2467,0,0,2452,2475,2479,2477,2446,0,2368,2345,2338,2332,2333,2333,2329,2328,2325,2327,2326,2325,2322,2320,2321,2326,2329,2334,2335,2339,2340,2344,2349,2356,2360,2375,2398,2425,2448,2452,2458,2437,0,0,2408,2388,2383,2377,2378,2379,2381,2379,2374,2370,2366,2362,2362,2367,2376,2399,2427,2440,2447,2438,2437,2435,2442,2450,0,0,0,0,2465,2449,2431,2431,2429,2427,2419,2417,2405,2396,2399,2424,2458,2450,2454,2450,2442,2421,2413,2405,2406,2406,2401,2398,2396,2398,2399,2412,2415,2417,2414,2414,2410,2408,2408,2409,2410,2414,2414,2414,2408,2408,2400,2398,2407,2418,2423,2424,2425,2430,2429,2434,2428,2435,2441,2451,2451,2422,0,0,0,0,0,0,0,0,1676,1659,1654,1654,1654,1649,1640,0,0,0,0,0,0,0,0,0,0,0,0,2462,2469,2494,2508,2511,2511,2509,2500,2494,2491,2492,2497,2499,2501,2474,0,0,0,2605,2609,2611,2614,2617,2618,2617,2615,2616,2626,2629,2619,0,0,0,0,0,0,0,0,0,0,0,0,0,2606,2613,2615,2618,2613,2610,2602,2601,0,0,0,0,0,0,0,0,0,0,0,0,0,0,0,0,0,0,0,0,0,0,0,1373,0,0,2340,2336,2318,2297,2290,2291,0,0,0,0,0,0,0,0,0,0,0,0,0,0,0,0,0,0,0,0,0,0,0,0,0,0,0,0,0,0,2218,2190,2188,2193,2198,2196,2189,2178,2164,0,0,0,0,0,0,0,0,0,0,0,0,0,0,0,0,0,0,0,0,0,0,0,0,0,0,0,0,0,0
0,1377,0,0,0,0,0,0,0,1373,1389,1396,1408,1417,1420,1424,1449,1474,1486,1485,1488,1497,1501,1507,1524,1540,1551,1560,1568,1569,1570,1568,1574,1575,1579,1578,1580,1579,1578,1583,1587,1591,1587,1587,1588,1587,1587,1585,1587,1586,0,1410,1398,1393,1397,0,2430,2435,2432,2453,2451,0,0,0,0,1742,1744,1742,1741,1742,1744,1748,1764,1803,2080,0,1851,1848,1847,0,1525,1538,1539,1536,1537,1543,1546,1573,0,2208,2216,2220,2222,2222,2221,2222,2229,2233,2233,2231,2236,2243,2248,2255,2248,2242,0,0,1526,1523,1514,1514,1524,1533,1543,1548,0,2371,2384,2399,2425,2441,2449,2456,2459,2457,2448,0,2392,2388,2404,2391,2392,2400,2420,0,2396,0,0,0,0,0,0,0,0,0,0,0,0,0,0,0,0,0,0,0,0,2454,2441,2433,2424,2432,2438,2472,2489,2490,2457,2416,0,0,2420,0,0,0,0,0,0,0,0,0,0,0,0,0,0,0,0,0,0,0,0,0,0,0,0,0,0,0,0,0,0,0,0,0,0,0,0,2447,2468,2477,2474,2444,2400,2351,2342,2335,2331,2328,2328,2323,2324,2322,2323,2319,2318,2317,2317,2318,2323,2327,2333,2332,2333,2334,2339,2346,2348,2351,2356,2376,2403,2442,2465,2484,2490,2469,0,0,2388,2382,2376,2377,2376,2379,2381,2378,2374,2367,2364,2361,2366,2373,2385,2409,2443,2450,2430,2421,2421,2434,0,0,0,0,0,2433,2423,2417,2419,2420,2421,2415,2413,2400,2393,2394,2411,2424,2434,2438,2433,2428,2416,2408,2402,2403,2405,2404,2404,2401,2400,2403,2408,2411,2406,2407,2410,2410,2409,2408,2405,2401,2402,2405,2408,2407,2405,2398,2400,2408,2415,2423,2429,2433,2434,2432,2436,2428,2431,2438,2450,2450,2444,2414,0,0,0,0,0,0,0,0,1667,1658,1649,1647,1646,1649,1629,0,0,0,0,0,0,0,0,0,0,0,0,2503,2512,2522,2519,2523,2519,2513,2510,2510,2514,2516,2518,2515,2496,2501,2593,2616,2627,2630,2631,2632,2635,2633,2633,2632,2635,2644,2648,2646,2608,0,0,0,0,2563,2594,2621,2624,0,2621,2629,2623,2624,2624,2630,2633,2630,2626,2620,2623,0,0,0,0,1457,0,1495,0,0,0,0,0,0,0,0,0,0,0,0,0,1423,1427,1385,0,0,0,2332,2340,2326,2304,2292,2286,2281,0,0,0,0,0,0,0,0,0,0,0,0,0,0,0,2126,0,0,0,0,0,0,0,0,0,0,0,0,0,0,2189,2188,2198,2202,2199,2188,2175,2158,0,0,0,0,0,0,0,0,0,0,0,0,0,0,0,0,0,0,0,0,0,0,0,0,0,0,0,0,0,0
0,0,0,0,0,0,0,0,0,1385,1393,1397,1406,1411,1416,1431,1456,1480,1483,1483,1486,1497,1505,1512,1526,1540,1554,1565,1569,1564,1566,1567,1576,1577,1583,1583,1584,1584,1584,1592,1591,1595,1588,1593,1590,1592,1588,1586,1586,1588,0,1411,1396,1392,1400,0,0,2461,2469,2473,2467,0,0,0,0,1747,1750,1749,1746,1743,1743,1745,1764,0,2099,0,1850,1850,0,0,1523,1535,1530,1527,1524,1535,1544,0,0,2230,2238,2249,2250,2255,2255,2263,2264,2267,2263,2267,2268,2271,2272,2275,2276,2271,0,0,1522,1517,1509,1513,1522,1526,1534,0,0,2343,2342,2340,2345,2356,2360,2365,2359,2381,2361,2331,0,0,0,0,0,0,0,0,0,0,0,0,0,0,0,0,0,0,0,0,0,0,0,0,0,0,2426,2426,2456,2449,2436,2426,2434,2444,0,2480,2493,2490,0,0,0,0,0,0,0,0,0,0,0,0,0,0,0,0,2469,2467,2475,2482,2482,2488,2489,2474,2466,2471,2457,0,0,0,0,0,0,0,0,0,0,0,0,0,0,0,0,2448,2454,2440,2405,2362,2342,2332,2327,2323,2321,2317,2317,2316,2315,2313,2312,2315,2319,2318,2319,2322,2325,2326,2327,2334,2338,2342,2342,2343,2346,2356,2377,2412,2448,2479,2493,2493,0,0,2394,2380,2377,2379,2379,2381,2383,2384,2380,2374,2368,2365,2370,2374,2380,2393,2428,2443,2423,2411,2409,2421,2425,0,0,2420,2416,2413,2410,2410,2412,2414,2415,2409,2409,2401,2394,2393,2398,2404,2406,2417,2422,2423,2412,2401,2396,2400,2404,2404,2405,2400,2396,2396,2405,2408,2404,2403,2404,2407,2407,2406,2403,2404,2403,2401,2403,2399,2401,2398,2405,2407,2409,2416,2422,2429,2432,2431,2433,2431,2434,2439,2443,2441,2438,2435,2429,2416,2418,0,0,0,0,0,1664,1656,1644,1639,1638,1642,1638,0,0,0,0,0,0,0,0,0,0,0,2487,2524,2527,2530,2525,2526,2525,2523,2524,2522,2521,2517,2517,2518,2530,2578,2611,2626,2631,2633,2634,2635,2636,2636,2636,2637,2637,2644,2646,2639,0,0,0,2598,2586,2598,0,0,0,2631,2629,2629,2629,2627,2632,2632,2633,2630,2630,2627,2631,0,0,0,0,0,0,0,0,0,0,0,0,0,0,0,0,0,0,0,0,1458,1414,0,1395,1388,0,0,2318,2325,2310,2292,2280,2269,0,0,0,0,0,0,0,0,0,0,0,0,0,0,0,0,0,0,0,0,0,0,0,0,0,0,0,0,0,0,2185,2189,2198,2200,2197,2188,2174,2157,0,0,0,0,0,0,0,0,0,0,0,0,0,0,0,0,0,0,0,0,0,0,0,0,0,0,0,0,0,0
0,0,0,0,0,0,0,0,0,1394,1400,1405,1417,1424,1431,1439,1461,1469,1471,1470,1489,1497,1507,1517,1525,1535,1545,1559,1559,1561,1562,1570,1579,1584,1591,1589,1589,1588,1592,1599,1596,1598,1597,1601,1599,1597,1594,1594,1594,1593,0,1415,1397,1391,1398,1412,2491,2488,2489,2486,2484,0,0,0,0,1739,1745,1748,1749,1747,1747,1748,1764,0,2136,0,0,1851,0,0,1540,1534,1527,1525,1525,1535,1543,1552,0,2242,2254,2265,2269,2273,2274,2280,2281,2283,2282,2285,2290,2294,2294,2293,2291,0,0,0,1515,1511,1504,1509,1518,1529,1539,0,2340,2343,2340,2337,2336,2341,2341,2338,2338,2335,2338,2332,2332,2328,2328,2328,2326,2321,2322,2317,2317,2315,2307,0,0,0,0,0,0,0,0,0,0,0,0,0,0,0,0,0,0,0,0,0,0,0,0,0,2494,2492,0,0,0,0,0,0,0,0,0,0,0,0,0,0,2438,2472,2469,2486,2497,2497,2499,2494,2492,2475,2462,2468,2474,0,0,2451,2465,0,0,0,0,2465,2453,2458,2457,2464,2457,2444,2436,2435,2439,2428,2406,2364,2345,2330,2325,2319,2317,2313,2314,2311,2311,2308,2306,2309,2313,2315,2317,2318,2322,2323,2324,2330,2334,2337,2337,2338,2340,2347,2358,2385,2422,2456,2469,2466,0,0,0,2396,2393,2394,2392,2393,2396,2392,2388,2381,2377,2371,2371,2375,2381,2395,2408,2422,2415,2411,2407,2413,2417,2420,2427,2429,2422,2415,2412,2410,2409,2412,2413,2407,2410,2403,2398,2392,2397,2401,2394,2397,2404,2410,2406,2396,2392,2396,2400,2398,2401,2395,2391,2390,2398,2407,2404,2401,2394,2397,2400,2401,2402,2404,2403,2397,2395,2394,2395,2397,2400,2398,2401,2411,2419,2422,2426,2431,2434,2435,2436,2441,2442,2441,2435,2438,2439,2437,2435,2438,0,0,0,0,0,1653,1641,1633,1631,1636,1628,1618,0,0,0,0,0,0,0,0,0,2490,2523,2538,2539,2540,2533,2532,2528,2530,2531,2529,2520,2517,2520,2529,2554,2591,2620,2629,2633,2634,2632,2631,2633,2636,2637,2637,2634,2633,2625,0,0,2590,2575,2585,0,0,0,0,0,2626,2628,2627,2624,2627,2629,2632,2628,2630,2634,2637,2641,0,0,0,1514,0,0,0,0,0,0,0,0,0,0,0,0,0,0,0,0,1456,1413,1387,1352,1359,1354,0,2304,2316,2313,2301,2281,2276,0,0,0,0,0,0,0,0,2361,0,0,0,0,0,0,0,0,0,0,0,0,0,0,0,0,0,0,0,0,0,2187,2190,2193,2195,2196,2189,2179,2159,0,0,0,0,0,0,0,0,0,0,0,0,0,0,0,0,0,0,0,0,0,0,0,0,0,0,0,0,0,0
0,1324,0,0,0,0,0,0,0,1385,1395,1403,1415,1428,1436,1444,1451,1466,1460,1473,1482,1484,1495,1517,1528,1539,1543,1554,1554,1558,1562,1572,1578,1583,1592,1595,1596,1595,1596,1601,1599,1604,1602,1603,1599,1599,1598,1600,1598,1594,1511,1417,1400,1392,1395,0,2473,2485,2492,2488,2474,0,0,0,0,1734,1741,1748,1753,1754,1751,1747,1762,0,2151,0,1852,1850,0,0,1533,1533,1533,1536,1531,1534,1539,1554,0,2246,2259,2268,2274,2277,2278,2281,2284,2288,2289,2292,2300,2305,2307,2304,2292,0,0,1505,1502,1502,1501,1500,1507,1523,0,0,2346,2348,2349,2348,2349,2352,2352,2350,2346,2342,2344,2346,2347,2341,2336,2332,2321,2317,2315,2318,2314,2310,2307,2308,2301,2292,2286,2303,0,0,0,0,0,0,0,0,0,0,0,0,0,0,0,0,0,2448,2452,2451,2489,2490,2443,2410,0,0,0,0,0,0,0,0,0,2432,2429,2467,2486,2495,2495,2498,2501,2504,2505,2497,2486,2470,0,0,0,0,0,2474,0,0,0,0,0,0,2435,2456,2454,2450,2447,2440,2439,2432,2433,2419,2395,2363,2343,2329,2318,2313,2312,2313,2312,2309,2307,2308,2309,2310,2313,2315,2317,2316,2320,2324,2327,2332,2331,2333,2333,2337,2340,2346,2356,2369,2392,2412,2430,2437,2438,2428,2422,2421,2431,2417,2415,2421,2422,2409,2395,2385,2380,2378,2380,2385,2393,2403,2410,2413,2410,2411,2405,2407,2403,2413,2419,2425,2421,2412,2407,2405,2401,2403,2404,2399,2398,2389,2387,2385,2385,2387,2378,2385,2392,2401,2400,2394,2394,2394,2395,2392,2395,2393,2389,2387,2392,2398,2401,2399,2395,2395,2397,2398,2400,2402,2401,2393,2391,2388,2390,2396,2397,2395,2400,2410,2415,2413,2418,2426,2429,2434,2438,2441,2440,2435,2436,2443,2449,2450,2448,2442,2433,0,0,0,0,1631,1635,1627,1625,1626,1624,1617,0,0,0,0,0,0,0,0,0,2520,2536,2547,2548,2547,2541,2536,2534,2536,2535,2521,0,2485,2525,2540,2568,2602,2622,2631,2635,2635,2634,2632,2634,2638,2641,2642,2635,2629,0,0,0,0,0,0,0,0,0,0,2580,2615,2625,2620,2623,2624,2631,2631,2624,2627,2637,2645,2634,2638,0,0,1476,0,0,0,0,0,0,0,0,0,0,0,0,0,0,0,0,1457,0,1364,1346,1365,1341,0,0,2320,2315,2305,2288,2282,0,0,0,0,0,0,0,0,2345,2341,0,0,0,0,0,0,0,0,0,0,0,0,0,0,0,0,0,0,0,0,2197,2195,2191,2192,2192,2189,2181,2166,0,0,0,0,0,0,0,0,0,0,0,0,0,0,0,0,0,0,0,0,0,0,0,0,0,0,0,0,0,0
0,1372,0,0,0,0,0,0,0,1366,1395,1403,1415,1421,1434,1445,1460,1463,1472,1481,1491,1491,1496,1516,1528,1535,1541,1550,1553,1559,1568,1580,1583,1584,1593,1597,1601,1600,1603,1604,1606,1607,1609,1607,1606,1606,1607,1605,1600,1594,0,1419,1404,1396,1397,1409,2479,2483,2491,2493,2480,0,0,0,0,1738,1742,1748,1751,1753,1752,1750,1767,0,2134,0,0,1847,1849,0,1522,1529,1526,1529,1519,1522,1527,1540,2237,2254,2267,2271,2276,2276,2278,2280,2287,2290,2295,2295,2301,2304,2307,2306,2295,0,0,1498,1496,1492,1490,1490,1500,1520,0,0,2345,2347,2351,2352,2355,2357,2358,2357,2354,2351,2352,2355,2359,2353,2346,2339,2330,2323,2321,2322,2319,2315,2312,2312,2303,2292,2278,2285,0,0,0,0,0,0,0,0,0,0,0,0,0,0,0,0,0,2439,2435,2472,2484,2485,2475,0,0,2447,0,2468,0,2465,2465,2488,0,2495,2484,2485,2488,2497,2494,2493,2495,2500,2505,2496,2493,2487,2482,2471,2462,2468,2478,2483,2490,2471,2469,2459,2455,2452,2445,2451,2441,2442,2438,2437,2439,2428,2420,2398,2369,2347,2334,2325,2318,2313,2310,2308,2307,2304,2303,2305,2304,2303,2305,2314,2318,2319,2322,2325,2325,2326,2326,2330,2329,2335,2339,2347,2352,2361,2377,2397,2413,2421,2434,2432,2431,2431,2442,2451,2448,2446,2437,2428,2411,2396,2387,2383,2385,2388,2397,2410,2414,2411,2404,2404,2401,2401,2396,2402,2408,2419,2417,2411,2402,2403,2394,2389,2393,2392,2392,2383,2385,2384,2379,2381,2382,2388,2389,2392,2394,2394,2392,2390,2389,2390,2392,2390,2389,2390,2390,2390,2392,2393,2395,2395,2397,2396,2398,2394,2392,2389,2391,2386,2384,2387,2393,2392,2400,0,0,2417,2423,2424,2425,2427,2430,2434,2437,2438,2440,2446,2450,2450,2443,2435,2429,2417,0,0,0,0,1628,1631,1627,1628,1624,1620,1608,0,0,0,0,0,0,0,0,2535,2542,2547,2551,2551,2546,2536,2529,2528,2527,2496,2489,2550,2559,2573,2592,2609,2619,2625,2632,2635,2634,2632,2632,2637,2640,2644,2640,2635,0,0,0,0,0,0,0,0,0,0,2598,2611,2622,2617,2619,2620,2623,2625,2620,2626,2630,2638,2626,2613,0,0,0,0,0,0,0,0,0,0,0,0,0,0,0,0,0,0,0,1391,0,0,1362,1363,1367,1338,0,2318,2320,2308,2297,2289,2278,0,0,0,0,0,0,0,0,2338,0,0,0,0,0,0,0,0,0,0,0,0,0,0,0,0,0,0,0,0,2201,2197,2195,2195,2195,2192,2187,2172,0,0,0,0,0,0,0,0,0,0,0,0,0,0,0,0,0,0,0,0,0,0,0,0,0,0,0,0,0,0
0,0,0,0,0,0,0,0,0,1375,1402,1407,1409,1410,1420,1441,1465,1475,1475,1482,1492,1499,1501,1512,1525,1537,1548,1557,1560,1562,1569,1577,1585,1591,1600,1604,1605,1604,1606,1609,1607,1606,1607,1605,1605,1607,1609,1610,1604,1595,0,1418,1399,1396,1401,1419,2478,2485,2486,2489,2481,0,0,0,0,1740,1744,1747,1747,1747,1745,1746,1763,0,0,0,0,1845,0,0,1519,1518,1510,1510,1505,1514,1518,1533,0,2265,2275,2276,2277,2274,2278,2282,2289,2294,2297,2298,2301,2305,2306,2304,2297,0,0,1496,1494,1490,1488,1489,1492,1502,0,0,2343,2347,2353,2355,2358,2357,2357,2354,2353,2355,2358,2363,2363,2360,2353,2347,2339,2335,2330,2329,2322,2318,2313,2315,2306,2293,2278,2283,2342,2389,0,0,0,0,0,0,0,0,0,0,0,0,0,0,0,0,2438,0,2478,2477,0,0,0,0,0,0,0,2472,2470,2488,2495,2492,2487,2487,2491,2493,2492,2488,2488,2490,2495,2490,2492,2487,2485,2471,2470,2474,2481,2479,2475,2469,2461,2459,2459,2453,2448,2440,2435,2435,2432,2430,2429,2420,2408,2381,2353,2335,2325,2322,2317,2312,2307,2305,2304,2303,2302,2304,2304,2306,2306,2312,2315,2318,2320,2324,2324,2323,2322,2327,2325,2329,2335,2345,2348,2348,2364,2386,2409,2419,2432,2432,2432,2428,2439,2447,2445,2432,2423,2427,2422,2413,2400,2399,2399,2399,2403,2409,2410,2409,2399,2397,2390,2394,2390,2391,2398,2406,2413,2404,2399,2398,2386,2379,2379,2381,2380,2376,2382,2384,2379,2382,2384,2387,2385,2386,2392,2394,2395,2390,2388,2387,2390,2389,2386,2385,2383,2383,2386,2391,2396,2395,2396,2395,2396,2390,2386,2381,2381,0,0,0,0,0,0,0,0,0,0,0,2421,2423,2428,2433,2436,2437,2439,2443,2449,2450,2446,2439,2435,2429,0,0,0,0,1621,1626,1622,1618,1618,1613,1606,0,0,0,2485,2517,2539,2547,2549,2550,2550,2550,2551,2552,2544,2530,2505,2482,0,2553,2576,2585,2592,2602,2612,2617,2622,2625,2630,2631,2633,2633,2636,2639,2642,2644,2640,0,0,0,0,0,0,0,0,1440,0,2584,2603,2612,2620,2615,2617,2616,2618,2620,2620,2623,2624,2627,2622,2614,0,0,0,0,0,0,0,0,0,0,0,0,0,0,0,0,0,0,0,1447,0,1371,0,1373,1361,1351,0,0,2307,2305,2297,2294,2287,0,0,0,0,0,0,0,0,2372,2360,0,0,0,0,0,0,0,2141,0,0,0,0,0,0,0,0,0,0,0,2211,2203,2198,2197,2195,2194,2189,2176,0,0,0,0,0,0,0,0,0,0,0,0,0,0,0,0,0,0,0,0,0,0,0,0,0,0,0,0,0,0
0,0,0,0,0,0,0,0,0,1395,1411,1414,1417,1411,1419,1446,1467,1486,1483,1492,1503,1512,1516,1510,1518,1533,1551,1553,1562,1564,1575,1583,1595,1600,1611,1609,1607,1609,1613,1614,1610,1606,1610,1611,1615,1612,1614,1615,1613,1605,0,1411,1392,1390,1401,0,0,2476,2468,2469,2467,2464,0,0,0,1739,1742,1744,1741,1741,1742,1744,1761,0,2069,0,0,1840,0,0,1513,1513,1505,1503,1503,1511,1524,0,2242,2269,2276,2276,2276,2275,2280,2284,2290,2295,2299,2300,2301,2304,2307,2308,2293,2280,0,0,1500,1489,1485,1487,1490,1488,1491,0,2342,2346,2352,2353,2356,2357,2357,2354,2353,2358,2360,2365,2364,2363,2360,2356,2352,2348,2342,2335,2329,2324,2321,2320,2311,2292,2279,2285,2380,0,0,0,2472,2487,2494,0,0,0,2478,2482,0,0,2488,2477,2466,2463,2457,2464,2470,2471,2452,2450,2456,0,2443,2472,2471,2474,2474,2486,2487,2483,2479,2480,2485,2486,2484,2480,2479,2478,2483,2482,2486,2482,2476,2466,2464,2468,2476,2468,2465,2454,2459,2453,2452,2443,2436,2431,2431,2433,2432,2424,2416,2407,2395,2366,2344,2327,2320,2318,2316,2313,2307,2304,2302,2300,2300,2302,2303,2303,2303,2308,2312,2315,2317,2318,2320,2317,2319,2323,2324,2326,2329,2338,2341,2343,2357,2376,2404,2410,2420,2424,2423,2419,2418,2421,2414,2408,2404,2415,2418,2420,2408,2406,2401,2402,2403,2407,2402,2402,2389,2389,2382,2386,2382,2384,2391,2404,2409,2406,2400,2397,2387,2380,2378,2377,2380,2381,2386,2384,2380,2384,2386,2382,2380,2387,2395,2398,2389,2384,2382,2384,2385,2383,2380,2381,2383,2387,2389,2390,2392,2394,2397,2397,2393,2383,0,0,0,0,0,1559,1558,1560,1559,1562,1562,1565,1563,0,2423,2424,2427,2431,2437,2437,2436,2435,2440,2443,2444,2438,2437,2434,0,0,0,0,0,1623,1620,1613,1610,1606,1602,0,2494,2500,2509,2527,2539,2549,2554,2555,2555,2552,2551,2544,0,0,0,0,2557,2586,2595,2600,2608,2618,2626,2623,2624,2625,2631,2631,2633,2633,2637,2638,2641,2637,2626,0,0,0,0,0,0,0,0,0,2593,2601,2607,2611,2614,2614,2612,2614,2613,2617,2618,2621,2622,2624,2627,0,0,0,0,0,0,0,0,0,0,0,0,0,0,0,0,0,0,0,0,1454,1459,0,0,1364,0,1378,0,0,2299,2304,2302,2296,2295,2285,0,0,0,0,0,0,0,0,2358,0,0,0,0,0,0,0,0,0,0,0,0,0,0,0,0,0,0,0,2210,2201,2200,2199,2199,2195,2192,2177,0,0,0,0,0,0,0,0,0,0,0,0,0,0,0,0,0,0,0,0,0,0,0,0,0,0,0,0,0,0
0,0,0,0,0,0,0,0,0,1382,1403,1407,1412,1413,1417,1441,1463,1471,1479,1485,1496,1512,1520,1516,1519,1532,1549,1555,1558,1566,1575,1583,1595,1602,1612,1611,1613,1612,1617,1618,1614,1610,1610,1613,1616,1615,1617,1620,1622,1613,0,1411,1388,1385,1395,0,2487,2476,2462,2459,2462,2414,0,0,0,1734,1740,1741,1743,1744,1746,1750,1763,0,2067,0,0,1843,0,0,1510,1513,1511,1511,1509,1514,1523,0,2247,2259,2267,2271,2273,2274,2279,2282,2286,2295,2299,2301,2302,2306,2309,2309,2305,2286,0,0,1497,1488,1485,1487,1486,1480,1476,0,0,0,2352,2352,2354,2355,2357,2356,2355,2360,2363,2367,2361,2363,2363,2363,2359,2352,2345,2338,2332,2328,2326,2326,2317,2293,2281,2286,2359,0,0,2458,2465,2485,2495,2493,2471,0,2479,2478,2487,2493,2490,2471,2465,2467,2460,2468,2468,2471,2460,2462,2473,2471,2469,2468,2466,2467,2467,2476,2479,2478,2474,2474,2482,2482,2482,2475,2472,2465,2468,2469,2474,2472,2470,2461,2458,2460,2464,2455,2446,2438,2443,2439,2436,2426,2429,2426,2427,2423,2421,2410,2397,2387,2376,2358,2337,2324,2318,2318,2315,2309,2301,2301,2301,2299,2298,2300,2305,2305,2306,2307,2309,2310,2313,2315,2318,2315,2317,2318,2321,2322,2325,2329,2339,2342,2352,2362,2383,2399,2402,2404,2406,2403,2400,2400,2402,2401,2399,2402,2404,2405,2398,2398,2398,2402,2401,2402,2396,2396,2392,2390,2379,2374,2372,2374,2381,2390,2399,2402,2396,2390,2381,2380,2376,2375,2373,2376,2382,2384,2384,2383,2382,2379,2379,2386,2393,2393,2388,2382,2380,2382,2382,2379,2375,2379,2384,2390,2392,2391,2388,2388,2391,2392,2388,0,0,1556,1558,1558,1558,1557,1557,1560,1560,1562,1562,1563,1562,0,0,2431,2432,2433,2440,2439,2436,2431,2436,2441,2444,2441,2439,2436,2425,0,0,0,1590,1601,1604,1600,1601,1596,1594,0,2510,2517,2520,2529,2534,2545,2553,2556,2553,2548,2538,2512,0,0,2509,2582,2602,2608,2610,2609,2616,2621,2628,2628,2630,2629,2632,2632,2635,2637,2642,2643,2644,2635,2616,0,0,0,0,0,0,0,0,0,2592,2597,2595,2602,2611,2615,2609,2611,2611,2616,2618,2621,2624,2623,0,0,0,0,0,0,0,0,0,0,0,0,0,0,0,0,0,0,0,0,0,0,1399,1404,1376,0,1380,0,0,0,2278,2298,2299,2301,2302,2301,2291,0,0,0,0,0,0,2372,0,0,0,0,0,0,0,0,0,0,0,0,0,0,0,0,0,0,2219,2218,2215,2207,2205,2202,2196,2190,2182,0,0,0,0,0,0,0,0,0,0,0,0,0,0,0,0,0,0,0,0,0,0,0,0,0,0,0,0,0,0,0
0,0,0,0,0,0,0,0,0,1388,1397,1405,1412,1411,1421,1433,1455,1470,1480,1483,1489,1504,1517,1516,1523,1532,1540,1546,1554,1565,1578,1587,1593,1596,1606,1610,1617,1619,1624,1622,1619,1615,1617,1618,1621,1619,1619,1619,1622,1615,0,1417,1394,1387,1393,0,0,0,0,0,0,0,0,0,1734,1737,1741,1743,1745,1747,1751,1752,1767,0,2085,0,0,1840,0,0,1506,1507,1504,1506,1503,1509,1515,0,2239,2253,2261,2264,2269,2271,2276,2278,2282,2291,2296,2300,2303,2307,2311,2310,2307,2295,0,0,1493,1485,1484,1483,1484,1478,1477,1477,1478,0,0,0,0,0,0,0,0,0,0,0,0,0,0,0,0,0,2343,2338,2333,2331,2333,2334,2323,2291,2277,2279,0,0,0,0,0,0,0,0,0,0,0,0,0,0,0,0,2456,2468,0,0,0,2478,2471,2473,2476,2482,2475,2463,2460,2460,2459,2461,2465,2467,2463,2461,2464,2470,2469,2464,2460,2453,2456,2459,2462,2462,2459,2457,2454,2452,2453,2442,2438,2428,2433,2429,2427,2420,2424,2423,2422,2412,2410,2398,2384,2364,2352,2344,2333,2317,2310,2310,2308,2302,2295,2295,2296,2294,2294,2296,2299,2298,2299,2302,2306,2307,2308,2307,2310,2310,2310,2311,2314,2317,2317,2322,2331,2342,2344,2349,2362,2380,2387,2387,2389,2391,2388,2391,2394,2395,2392,2392,2397,2397,2388,2385,2386,2390,2388,2389,2390,2392,2388,2383,2374,2368,2367,2370,2376,2383,2388,2391,2385,2385,2384,2385,2381,2376,2373,2373,2378,2381,2381,2379,2379,2379,2382,2387,2391,2391,2383,2379,2377,2381,2380,2379,2375,2381,2384,2388,2387,2386,2383,2383,2386,2386,0,0,1548,1554,1556,1558,1558,1558,1560,1561,1562,1563,1563,1563,1561,0,0,2435,2434,2432,2438,2439,2440,2435,2438,2441,2444,2444,2441,2438,0,0,0,1570,1583,1588,1592,1593,1593,1591,0,0,2520,2526,2525,2529,2529,2539,2547,2550,2543,2524,0,0,0,2560,2586,2602,2616,2615,2615,2613,2618,2620,2624,2626,2628,2629,2632,2634,2636,2637,2643,2644,2646,2634,0,0,0,0,0,0,0,0,0,0,2591,2589,2588,2590,2601,2609,2607,2609,2612,2617,2619,2619,2625,0,0,1416,0,0,0,0,0,0,0,0,0,0,0,0,0,0,0,0,0,0,0,1476,1424,1385,0,1381,1359,1348,0,0,0,2317,2312,2310,2308,2312,2313,0,0,0,0,0,0,0,2384,0,0,0,0,0,0,0,0,0,0,0,0,0,0,0,0,0,2230,2214,2203,2201,2204,2204,2197,2186,2177,2166,0,0,0,0,0,0,0,0,0,0,0,0,0,0,0,0,0,0,0,0,0,0,0,0,0,0,0,0,0,0
